# .PCD v0.7 - Point Cloud Data file format
VERSION 0.7
FIELDS x y z rgb
SIZE 4 4 4 4
TYPE F F F U
COUNT 1 1 1 1
WIDTH 140
HEIGHT 1
VIEWPOINT 0 0 0 1 0 0 0
POINTS 140
DATA ascii
0.70288938 -0.074536972 0.017564343 8939368
0.70717144 -0.068211056 0.017960697 10912615
0.71667027 -0.062626027 0.01986222 8880980
0.72784543 -0.043895632 0.016416928 5132341
0.72752845 -0.033623815 0.015851624 5130528
0.72940165 -0.020676389 0.016046397 4605214
0.73812968 -0.013385618 0.016227901 5127970
0.74896395 -0.0078070052 0.015185975 6312248
0.76447082 -0.0043466222 0.017342463 5918772
0.70636016 -0.075887099 0.023027495 10197918
0.7123006 -0.071783379 0.024960704 9536375
0.72056383 -0.070075385 0.026421443 9803670
0.71443379 -0.066145822 0.022806194 7099444
0.72168082 -0.065424293 0.024968848 5588514
0.72656029 -0.057970889 0.024537496 8426070
0.731529 -0.056366306 0.022201756 8554586
0.72615409 -0.044701144 0.024811715 6910022
0.73017401 -0.048384607 0.026270822 6582597
0.72328311 -0.032776631 0.025646105 6383672
0.73128253 -0.034456763 0.022853365 6515772
0.72521061 -0.025352575 0.021964552 6055223
0.73168343 -0.025676735 0.024546981 5988657
0.73551309 -0.015821245 0.023756023 5461037
0.74160331 -0.011471529 0.024254262 5788718
0.74233496 -0.008407956 0.022825263 5788469
0.71620589 -0.074520268 0.034889176 10660254
0.72144729 -0.074635237 0.033113971 13032668
0.72412765 -0.064214118 0.034367219 5204277
0.73376083 -0.064519927 0.034895338 4345880
0.73336202 -0.056459118 0.034986358 7243863
0.72333056 -0.045448437 0.033593524 6055479
0.73024595 -0.046414547 0.034124613 6186546
0.72516799 -0.033070527 0.033801146 6054197
0.73088658 -0.036489904 0.034899995 6119985
0.72761256 -0.021987058 0.031126402 5855268
0.73164725 -0.024202878 0.035890903 5526824
0.73666877 -0.01573498 0.033656493 5592103
0.74344707 -0.012520863 0.034343541 5459748
0.74819547 -0.0068539716 0.031904012 8088161
0.75096989 -0.0068811215 0.034136653 7100226
0.71797925 -0.073181987 0.045500051 8165506
0.72111201 -0.067526475 0.0432413 3689252
0.73226023 -0.061256893 0.042723078 10467482
0.72932398 -0.053108841 0.0468098 7306568
0.73523456 -0.053921819 0.044448793 7110999
0.72599167 -0.045403197 0.044024922 5791793
0.73299807 -0.046048742 0.045000017 5858100
0.72785532 -0.034379005 0.043743782 5461540
0.73275071 -0.036173336 0.046193179 5263906
0.73538947 -0.026068449 0.046032034 5132318
0.74077958 -0.022254724 0.049344227 4475682
0.74387634 -0.014700362 0.042853542 5655849
0.7525894 -0.011099763 0.048283398 5787432
0.71550477 -0.073169947 0.054155767 8951675
0.72164989 -0.070183128 0.051396161 4613435
0.71546578 -0.06287384 0.056302376 4738585
0.72057092 -0.063225754 0.052279428 8031062
0.71937597 -0.058911312 0.056163579 13685169
0.72444689 -0.053720884 0.054054722 6846020
0.71352124 -0.045498636 0.059038572 6644289
0.72310615 -0.044046208 0.055558864 5792819
0.71584731 -0.033358678 0.05924692 6316599
0.72331291 -0.035378203 0.055975873 5725741
0.72752529 -0.025695303 0.056837857 5396525
0.73316699 -0.017270807 0.055946775 6380097
0.74534631 -0.018417604 0.050925605 4472346
0.7094751 -0.073927842 0.066599563 7571536
0.7158795 -0.071718395 0.063437305 7509596
0.70674843 -0.06419374 0.0669773 4810287
0.71386248 -0.065552004 0.065830581 4875057
0.71570945 -0.054536574 0.065453261 5395242
0.70841408 -0.049521178 0.069995724 5456937
0.71581936 -0.045710564 0.065643132 6314552
0.72075444 -0.04006834 0.066464067 5394735
0.7173934 -0.034555376 0.066969737 5723945
0.72030574 -0.038986817 0.062488675 1183235
0.71896124 -0.022784226 0.067555577 6250290
0.72454977 -0.025629738 0.066802599 6185270
0.72805542 -0.015194975 0.067092501 6512952
0.73378551 -0.014487697 0.064843267 7301445
0.73512965 -0.0091939345 0.064432666 8484955
0.74067289 -0.0098390467 0.067108005 8744802
0.71443444 -0.072523355 0.076273352 10074003
0.70725954 -0.064446568 0.07636711 4283685
0.71368378 -0.066151813 0.076038472 5270579
0.70929021 -0.050652891 0.077112183 5258789
0.71452761 -0.055243038 0.076878995 4408866
0.7163384 -0.045447435 0.07741458 6115627
0.7202335 -0.041015085 0.078076199 5921323
0.71710414 -0.035490733 0.077423468 5790501
0.71887791 -0.02309037 0.078448951 5592862
0.72379833 -0.026043266 0.077965222 5855782
0.72914845 -0.014389263 0.077171519 5789475
0.73530513 -0.013484238 0.076978967 6052140
0.72196513 -0.07339742 0.081770897 7237192
0.74454641 -0.07537289 0.089087993 13555876
0.7135452 -0.065666661 0.086511806 6974305
0.72208297 -0.067114875 0.085147291 8555127
0.71761549 -0.05435326 0.085531652 5588782
0.7246483 -0.054758687 0.0873762 6773821
0.71523315 -0.044844653 0.083409563 5460002
0.7239092 -0.044232912 0.08727935 5790504
0.71776217 -0.034168147 0.086333305 5592866
0.7253871 -0.034648195 0.087883979 5724202
0.7253812 -0.026009271 0.087038375 5723680
0.73129189 -0.022945337 0.088642403 5723435
0.73504382 -0.014573766 0.086795077 5788450
0.74022186 -0.0080572516 0.08439105 6113826
0.74902159 -0.070662782 0.097322375 13422255
0.75108272 -0.071648926 0.098365456 13748423
0.73440635 -0.063323915 0.094467334 11516048
0.74252456 -0.065096505 0.096220993 11583377
0.71972179 -0.054879293 0.091219202 7170641
0.7268548 -0.051381655 0.096719742 8623185
0.73186046 -0.054864958 0.093598507 8425055
0.72360682 -0.042855851 0.094215974 6779453
0.7334072 -0.046191934 0.095733821 7635790
0.72340906 -0.034619562 0.094413459 5856300
0.73211598 -0.035694033 0.09645617 6119985
0.72792101 -0.023795553 0.094651356 5461532
0.73455071 -0.026080811 0.096765175 5396004
0.73346335 -0.016869025 0.094553158 5656356
0.74111027 -0.018353615 0.095451355 5130779
0.75099123 -0.071469203 0.10556525 13812931
0.74535996 -0.064753033 0.10377743 14409677
0.75039518 -0.063930646 0.10833874 12371115
0.73983514 -0.053370133 0.10593411 7239989
0.74480063 -0.055950593 0.10283972 9082721
0.73348683 -0.045275688 0.102117 9149551
0.74554574 -0.04784745 0.10617158 10789739
0.72885913 -0.035146333 0.10533439 6320443
0.73543155 -0.036503606 0.1042943 7833430
0.73534995 -0.024885815 0.10504257 5525535
0.74502802 -0.018974997 0.10029745 6049332
0.74472088 -0.052936941 0.1134443 7568441
0.75342023 -0.056680735 0.11035642 7767881
0.73226219 -0.035510629 0.1135866 10330998
0.74021554 -0.035062682 0.11314873 8424805
0.73332721 -0.027254455 0.11379495 6775614
0.74045837 -0.025578577 0.11210853 5522477
