# .PCD v0.7 - Point Cloud Data file format
VERSION 0.7
FIELDS x y z rgb
SIZE 4 4 4 4
TYPE F F F U
COUNT 1 1 1 1
WIDTH 164
HEIGHT 1
VIEWPOINT 0 0 0 1 0 0 0
POINTS 164
DATA ascii
0.71700764 -0.091238186 0.023157746 12366022
0.72912323 -0.09205696 0.025305092 12497607
0.74265134 -0.093350582 0.025520742 12760782
0.72788155 -0.083419845 0.024006419 12565447
0.73467249 -0.084217042 0.025957942 12763341
0.74439168 -0.0899399 0.026764005 12631243
0.70545262 -0.077373475 0.026559472 11511223
0.71497917 -0.075579807 0.024802841 11579833
0.70511246 -0.068185665 0.026601635 10328990
0.69772118 -0.055954512 0.025267323 9340289
0.70578259 -0.054162741 0.024643578 8488048
0.7081517 -0.040593226 0.026427776 4599840
0.71147984 -0.042693209 0.023137808 6379325
0.7161926 -0.034712944 0.025008494 5258545
0.72108614 -0.035938498 0.026063584 5125686
0.72413921 -0.026257878 0.027196672 4337961
0.72311842 -0.015830977 0.026981546 6245177
0.72066808 -0.081108831 0.031132445 11909812
0.70728087 -0.074947521 0.035438769 9803904
0.71757823 -0.07931371 0.036595836 10267024
0.7019915 -0.061539955 0.035002269 6976065
0.71197474 -0.068625391 0.034819067 7634002
0.70305669 -0.053287141 0.035694841 6054202
0.71087855 -0.055647701 0.035131939 5593389
0.70305443 -0.046100315 0.034055684 4998701
0.71179813 -0.04125708 0.034162719 4342048
0.71328419 -0.035143569 0.034801316 3550503
0.71864235 -0.023611838 0.039564222 3879712
0.72236723 -0.028299723 0.032508358 2959639
0.72636521 -0.016408572 0.033709917 4273946
0.73033762 -0.019145153 0.039372697 3549223
0.7147882 -0.080236368 0.047965869 10201483
0.72039735 -0.08338663 0.041628778 11911346
0.70542383 -0.070959792 0.045600325 7435600
0.71304464 -0.076277949 0.043115165 9280617
0.70743716 -0.066743255 0.041045912 6252853
0.71239722 -0.06859991 0.043598473 6581563
0.70828658 -0.056364518 0.04280157 4607010
0.70842278 -0.043697014 0.041738007 5327673
0.7103346 -0.04846736 0.044144094 5788727
0.7133835 -0.034577653 0.042618904 5852238
0.71842611 -0.026005624 0.044774052 5392449
0.72341383 -0.02521055 0.041033715 5458501
0.73042226 -0.017537881 0.0423657 3018766
0.71620262 -0.080448151 0.05499249 11712935
0.72211504 -0.081446841 0.056460328 12696746
0.71687609 -0.077352099 0.055147011 10530700
0.70585251 -0.064683065 0.051794395 5791027
0.71354473 -0.068598419 0.052176997 7042636
0.69944179 -0.053950779 0.056235433 5527865
0.70608854 -0.054973438 0.051592521 5659445
0.71001893 -0.057994571 0.053986356 5659434
0.70443249 -0.046525989 0.052173734 5788469
0.71001351 -0.048471063 0.053030923 5525027
0.70971191 -0.037737459 0.051681176 5984072
0.71515816 -0.03378832 0.051190224 5786950
0.7176832 -0.027941294 0.051881857 5786439
0.7231366 -0.025453167 0.056025341 5194284
0.72977048 -0.019305484 0.057550639 5255191
0.70954823 -0.071882397 0.061139345 8621674
0.71554631 -0.075609282 0.062598504 13751484
0.70735812 -0.065089807 0.063063666 6910535
0.71354675 -0.067113884 0.063911736 6714449
0.70759803 -0.054841772 0.064900316 4013590
0.71346164 -0.055651963 0.061036192 4870689
0.70922369 -0.045656558 0.065424219 4341789
0.7109794 -0.044889718 0.061900362 4276254
0.71509719 -0.03655684 0.06287618 4668964
0.72087151 -0.03120145 0.06537649 3553289
0.72405028 -0.02702 0.063669652 4075294
0.7327311 -0.02511142 0.06289728 3287825
0.72690046 -0.019026959 0.062192708 6768430
0.71455032 -0.080926821 0.074409574 11576212
0.69332075 -0.072013751 0.075016841 7636051
0.70830983 -0.077137791 0.076552607 9409910
0.696931 -0.063521169 0.074472278 4673825
0.70432591 -0.067600735 0.074753895 5793850
0.69669545 -0.054981712 0.075052753 5591603
0.70340228 -0.05645353 0.074917845 5461034
0.69730318 -0.045015201 0.075472683 5000481
0.70474815 -0.048122007 0.073253408 5132832
0.70534974 -0.036901385 0.075957417 4474139
0.71354103 -0.033971578 0.073124312 4144921
0.71496713 -0.025625229 0.076332882 5129763
0.72032648 -0.019770762 0.077264711 11310477
0.70834661 -0.09054964 0.087646842 11640733
0.70212305 -0.08139725 0.083882123 9606259
0.71417737 -0.087880701 0.08575777 11251855
0.69446766 -0.078018814 0.080268681 11050627
0.70608628 -0.077494875 0.083830789 8754787
0.6957776 -0.065927871 0.082813591 5003562
0.70233727 -0.068096802 0.086402774 5923377
0.69660109 -0.055175021 0.084171779 5198371
0.69797277 -0.046221551 0.084413469 4869664
0.70305777 -0.043769792 0.082489699 4540706
0.69978297 -0.038241953 0.081117272 4013088
0.70384264 -0.036136668 0.082903802 4473116
0.70883512 -0.028122054 0.081745043 4669728
0.71399957 -0.023205319 0.083822213 5917233
0.71649748 -0.01994827 0.083828479 6112553
0.70806766 -0.09079729 0.093691617 12370098
0.71456838 -0.091353089 0.097986042 12102288
0.70557797 -0.081484944 0.091450416 9675389
0.71243256 -0.086983524 0.098759972 11514503
0.72309464 -0.088842295 0.095687911 12171418
0.69708645 -0.070299394 0.09476757 6711617
0.70287651 -0.075457253 0.094921947 7308633
0.71160412 -0.079707786 0.093320921 9675893
0.6962254 -0.064426564 0.093528584 5592869
0.70467228 -0.068132624 0.094541222 6778942
0.69617403 -0.054757055 0.093757153 4867864
0.70118505 -0.056840703 0.095164359 5066779
0.69708443 -0.045045774 0.093909331 4801815
0.70375633 -0.044257604 0.094726093 4408085
0.70216972 -0.035565887 0.094011396 3879444
0.70844567 -0.02671765 0.092806652 3616018
0.71612787 -0.023022568 0.094656192 4603155
0.71812254 -0.0199602 0.092244446 5457444
0.70817077 -0.081570603 0.10212182 11187606
0.71678388 -0.084567741 0.10641202 12039563
0.72012138 -0.082872421 0.10344683 12237968
0.70713693 -0.076295957 0.10445243 10858382
0.7152887 -0.076939926 0.10421865 12964032
0.69935703 -0.062452756 0.1063627 6382381
0.70327979 -0.067542829 0.1030368 7042116
0.71231401 -0.069256082 0.10564909 7634766
0.70220947 -0.05574606 0.10381796 5395748
0.71322626 -0.057006977 0.10742217 6053932
0.69920999 -0.048173644 0.10213025 4606230
0.70342761 -0.044016939 0.10369673 4671001
0.71245122 -0.044267833 0.10612401 5130780
0.70595664 -0.035143208 0.1058355 4538649
0.71301913 -0.02789115 0.10253002 4538136
0.72216076 -0.025391005 0.10610383 4668949
0.72572893 -0.01978986 0.10260431 5128480
0.70783341 -0.080389805 0.11797847 11447948
0.71107614 -0.080208816 0.11135904 11711126
0.70863557 -0.074413471 0.11225158 8094045
0.71442235 -0.076476187 0.11405036 11384471
0.70689917 -0.066424787 0.11325646 5788976
0.71512359 -0.068356127 0.11571467 5792051
0.70697618 -0.054107573 0.1117022 5263652
0.71426183 -0.05872748 0.11468336 4538909
0.72316718 -0.052375004 0.11361127 4143120
0.70775843 -0.04415971 0.1103503 4934171
0.71543884 -0.044571087 0.11526243 4537104
0.72477174 -0.044655062 0.11446133 4801820
0.71546721 -0.033004284 0.1116319 4800534
0.7252304 -0.037284456 0.11754715 4865567
0.73563606 -0.033113796 0.11476326 4274451
0.71840811 -0.028540522 0.11248282 5127708
0.731861 -0.028420636 0.11535352 5191453
0.70913506 -0.074865036 0.12091091 10661006
0.71403801 -0.076225065 0.12381475 10525835
0.70986164 -0.06632971 0.1212104 4935723
0.71434557 -0.067751676 0.12527044 6712650
0.71689159 -0.057399876 0.12430797 3615528
0.72385913 -0.055173654 0.12239981 3682588
0.72577626 -0.043698967 0.12292666 3617046
0.73254168 -0.043828338 0.12668848 5330740
0.72780979 -0.035147779 0.12781861 3018776
0.73668259 -0.037001211 0.12144006 1050127
0.72826284 -0.054254107 0.13002922 6116166
0.72935873 -0.048608258 0.13012496 6316099
