# .PCD v0.7 - Point Cloud Data file format
VERSION 0.7
FIELDS x y z rgb
SIZE 4 4 4 4
TYPE F F F U
COUNT 1 1 1 1
WIDTH 128
HEIGHT 1
VIEWPOINT 0 0 0 1 0 0 0
POINTS 128
DATA ascii
0.73607647 -0.14286309 0.036296614 13615066
0.73847347 -0.13429554 0.03697348 10782085
0.74394894 -0.13493112 0.032875769 11309715
0.74564135 -0.12439419 0.033765398 10455426
0.74836534 -0.11490528 0.035510749 11768998
0.72894138 -0.10160919 0.035018653 12369084
0.73186582 -0.10758199 0.037482828 13354716
0.75225419 -0.1089241 0.03038834 13224922
0.71701896 -0.093449041 0.036461096 9345402
0.70941174 -0.080123641 0.038266793 6187074
0.7125622 -0.08520782 0.036880098 6977366
0.71220541 -0.072423212 0.037322871 5790773
0.70797855 -0.069839329 0.039826915 5921588
0.71291292 -0.063312657 0.037266944 5461552
0.71593624 -0.055474386 0.037377212 5132072
0.72589916 -0.050401289 0.035939611 4077083
0.72220415 -0.045700133 0.035638288 4340757
0.73218918 -0.044788152 0.035259351 4931882
0.76477396 -0.037895139 0.035426572 4139545
0.76256114 -0.028884813 0.030025721 8217443
0.73808485 -0.12541774 0.042285517 7822937
0.74476194 -0.12331187 0.04460232 8289666
0.73820603 -0.11955452 0.042403296 4344100
0.74752718 -0.11482927 0.047340482 11901325
0.75190896 -0.11524843 0.041005187 11178131
0.7249372 -0.10211976 0.046075694 11055509
0.73242527 -0.10763805 0.043169387 13419753
0.71723658 -0.094767742 0.047661528 9741932
0.72231138 -0.093576491 0.048173927 9610099
0.70893615 -0.080248021 0.04985559 6975831
0.71413207 -0.084916793 0.048476845 8556132
0.71259046 -0.075250268 0.042834666 5528109
0.70786005 -0.069974355 0.049395621 5262625
0.71700007 -0.064318769 0.048073463 4803364
0.71546572 -0.055288769 0.04901579 4737306
0.7206226 -0.053227149 0.047808237 4868385
0.72652292 -0.045686573 0.046945993 5524012
0.73600912 -0.12521169 0.054663882 13157855
0.73820567 -0.11964718 0.054149766 5269086
0.72826391 -0.10325291 0.055782109 11251097
0.73188454 -0.10188484 0.054750219 10261113
0.72433472 -0.095487468 0.05679645 14346197
0.71638697 -0.08512269 0.058019552 6976841
0.72359151 -0.089920454 0.055623792 7966311
0.71632242 -0.072691962 0.053656876 5198377
0.71467483 -0.06354209 0.053544383 5065505
0.71801794 -0.053649608 0.059039146 5066533
0.72219235 -0.053322181 0.056098849 5197865
0.73968077 -0.12560633 0.062826872 12298928
0.74067247 -0.1242891 0.065492071 10853533
0.74028546 -0.11980921 0.062833801 3422247
0.71494389 -0.1033228 0.067460209 12693414
0.73034859 -0.10155112 0.065156251 9276286
0.71162283 -0.091865867 0.068465546 7503955
0.72779763 -0.095887661 0.060866505 9013088
0.71307623 -0.083582327 0.064239576 6450236
0.71123916 -0.072336428 0.063176282 4737312
0.71437865 -0.06344787 0.065013312 4145175
0.71664363 -0.056108374 0.067736492 4210467
0.72278136 -0.05212526 0.064661279 4406044
0.73038191 -0.050674248 0.06105803 4472081
0.7298333 -0.12453455 0.077524088 12826553
0.71769154 -0.1119849 0.078865349 9666921
0.72227919 -0.11524865 0.078134552 6974020
0.73055702 -0.11700529 0.073739223 7108431
0.71211469 -0.10355349 0.076231271 8224590
0.70719105 -0.092095822 0.07706631 7107143
0.70453495 -0.084132083 0.076638728 6712382
0.7057029 -0.07549531 0.075304553 5988143
0.7060737 -0.065639772 0.075368248 5133352
0.7123723 -0.053323988 0.076375589 4541469
0.7205925 -0.045110743 0.075910285 7759422
0.7211808 -0.12084468 0.086680286 8619112
0.7316618 -0.1247291 0.085943073 11908276
0.71837324 -0.11208043 0.087305158 8479824
0.72567558 -0.11557549 0.086312674 6183223
0.71425962 -0.10424336 0.087430097 9740399
0.70672816 -0.098082907 0.086007379 7568715
0.70409131 -0.083252795 0.085873187 6119728
0.70510715 -0.072402343 0.087637454 4935444
0.7053836 -0.062740713 0.08501704 5000731
0.70721596 -0.053915322 0.080024913 4343837
0.71130431 -0.051954646 0.088570617 5196829
0.71817958 -0.045204192 0.087178871 4933401
0.72120094 -0.042195264 0.088146791 6246191
0.72200191 -0.039655909 0.087026432 6048033
0.72389483 -0.12019429 0.09674412 7831146
0.71911299 -0.11219258 0.098559119 5912353
0.72749966 -0.11575812 0.094680518 7959138
0.71651077 -0.10352818 0.097488284 15001818
0.70238882 -0.094128847 0.090310864 7107660
0.71232945 -0.092096314 0.098175637 7899483
0.7099126 -0.081834532 0.099229559 5923630
0.70825297 -0.075323969 0.095676467 5001497
0.70577765 -0.064226598 0.093278989 5262870
0.71296072 -0.06361869 0.099245176 4933655
0.70619196 -0.0560132 0.094548948 4935188
0.71753889 -0.053598374 0.098233119 4933394
0.71756274 -0.045148708 0.09572269 5196064
0.72478193 -0.045338999 0.098037638 5523226
0.7216478 -0.039622996 0.096588552 5128479
0.72492588 -0.11558536 0.10617574 10454917
0.73070824 -0.1132315 0.10022905 6244155
0.71543163 -0.10164472 0.10447945 11581852
0.73003286 -0.10749142 0.10028413 9802844
0.70554137 -0.09443298 0.10091724 8228710
0.72023153 -0.095452704 0.10621637 10200173
0.70270288 -0.084674284 0.10151125 6581564
0.71478271 -0.085369818 0.10639824 7634266
0.7137205 -0.072862744 0.10374876 4933912
0.70506012 -0.065654606 0.10147885 4802842
0.71797049 -0.064737141 0.10643926 4802579
0.71408594 -0.053119067 0.10497618 4867096
0.72713023 -0.05381703 0.10628839 5392671
0.72526401 -0.045407724 0.10723563 5063719
0.71419358 -0.093277074 0.11175951 11252359
0.70615155 -0.080875449 0.11210543 6251321
0.71443897 -0.086799532 0.11538634 11581844
0.70700401 -0.072710313 0.1121189 5131297
0.71680522 -0.073056802 0.11469223 5000471
0.71350986 -0.065600805 0.11173093 4802333
0.72530586 -0.065021753 0.11462035 4996893
0.72778338 -0.051102195 0.11244626 5588278
0.70876551 -0.081097238 0.12002348 6912078
0.71340382 -0.08552815 0.12491937 10987396
0.70961797 -0.072924435 0.12003323 5066775
0.71612394 -0.074551746 0.12269612 6580546
0.72012681 -0.073245823 0.12293995 5198892
