# .PCD v0.7 - Point Cloud Data file format
VERSION 0.7
FIELDS x y z rgb
SIZE 4 4 4 4
TYPE F F F U
COUNT 1 1 1 1
WIDTH 305
HEIGHT 1
VIEWPOINT 0 0 0 1 0 0 0
POINTS 305
DATA ascii
0.75369263 -0.11395613 0.026005171 15260650
0.75571781 -0.10557588 0.025734067 15194848
0.7578848 -0.09232752 0.026564687 14669545
0.76349127 -0.083570369 0.025544837 13881573
0.7255156 -0.073475674 0.026099339 10390679
0.72179621 -0.065869734 0.025137108 10854312
0.74217749 -0.064985991 0.026736289 9407635
0.72867697 -0.058726668 0.025113434 10590615
0.74399269 -0.056679815 0.025272816 7829864
0.72334957 -0.045613632 0.02591674 7363165
0.72476572 -0.03610475 0.026984893 7299411
0.73337865 -0.021692973 0.027024642 6837311
0.73194921 -0.013527542 0.028575733 6441530
0.75529516 -0.016294733 0.025791973 4403750
0.73411238 -0.0049992194 0.026390648 8547167
0.75243574 -0.0005284436 0.027953833 8678751
0.72815108 -0.1107191 0.035345256 12231864
0.73621136 -0.11192872 0.037401319 8085619
0.75056052 -0.11185077 0.035051942 8285054
0.72650069 -0.10623986 0.032844756 14536148
0.73512113 -0.10288864 0.038245521 9201240
0.75438625 -0.1020306 0.036112189 8675923
0.72563142 -0.096271396 0.034511641 15919081
0.73198891 -0.093844868 0.039281487 10193782
0.74350429 -0.094900794 0.036485255 9138009
0.75526363 -0.094811931 0.034732878 8085822
0.7367174 -0.073368311 0.036124855 12172985
0.75298965 -0.073583581 0.037888661 9147258
0.72479546 -0.068154708 0.034519643 10725522
0.73175472 -0.061319239 0.033964649 8028005
0.75026631 -0.065695897 0.033841848 7174732
0.71724951 -0.053720593 0.032970324 6844749
0.7260806 -0.050802361 0.035285711 6515790
0.73956108 -0.051382896 0.036517963 6911046
0.74362165 -0.059894398 0.035393432 9937780
0.71562558 -0.043610215 0.033014759 5855545
0.74080139 -0.040050268 0.03667298 6120250
0.71818298 -0.031834584 0.035143182 5525806
0.72601312 -0.036609959 0.036564082 5594161
0.73116064 -0.030789822 0.035120726 5329201
0.74389201 -0.031485669 0.036357448 5594421
0.72407007 -0.024292341 0.035419371 5130022
0.73329335 -0.025264308 0.037838355 4868648
0.74020034 -0.020776864 0.032189548 4472098
0.75069267 -0.022689499 0.035309419 4869414
0.72749305 -0.017680228 0.031247228 6181692
0.73376864 -0.01590492 0.039539214 5523507
0.74437439 -0.010782458 0.035132058 5061924
0.75713527 -0.013628773 0.031397209 5526047
0.76181591 -0.013698059 0.036343247 3747093
0.73075998 -0.0091236532 0.035094537 5652537
0.74109781 -0.0016397403 0.03010653 9206130
0.76560968 -0.00014033169 0.030325323 9139298
0.71914858 -0.10417859 0.049632423 15327737
0.72488457 -0.10458516 0.040258631 8675390
0.7412377 -0.10380249 0.042511523 8614004
0.72683269 -0.095355719 0.040971402 7690311
0.73623371 -0.096345983 0.048167646 10532272
0.7439186 -0.095218301 0.042338714 4673335
0.75585037 -0.09362679 0.044899091 7173994
0.72643393 -0.073631547 0.044988066 8818039
0.73748648 -0.074902579 0.048283212 7567451
0.71927679 -0.065095864 0.046293199 7832160
0.72262406 -0.066936269 0.041623402 7437642
0.73244363 -0.063004538 0.044496238 7700300
0.74594581 -0.063130826 0.044916973 7371594
0.71666634 -0.053722903 0.042884361 7831889
0.72346944 -0.055431359 0.044103559 8292439
0.74191928 -0.051822074 0.047512487 6646592
0.71362209 -0.043608025 0.043510061 6514493
0.7255258 -0.040394671 0.047805041 5921318
0.74192256 -0.040533416 0.047906473 5789734
0.72425199 -0.033349648 0.045122162 5921322
0.7437855 -0.032029342 0.047862262 5264162
0.71873689 -0.024871018 0.044817358 5920305
0.72624874 -0.023955449 0.045206808 5393701
0.73622304 -0.023905275 0.044970855 4670745
0.74815434 -0.026083212 0.044379652 5328946
0.75038922 -0.020303559 0.044160515 5787956
0.71433502 -0.10073029 0.057966039 14006979
0.72893822 -0.10306409 0.055897132 14536931
0.75617915 -0.10101885 0.051856995 14865392
0.7292375 -0.093531862 0.053921357 9549212
0.73340577 -0.095808655 0.057304233 9019793
0.74144816 -0.092941791 0.057888329 6579797
0.72863626 -0.076597765 0.053914037 6909029
0.73024642 -0.073780037 0.056996197 6253114
0.74190384 -0.075714491 0.058836915 7043426
0.75498575 -0.074984387 0.05007498 6712908
0.71871918 -0.065042801 0.051917411 7963211
0.72179937 -0.065492362 0.053979672 7173183
0.73358464 -0.064668238 0.054808598 6844216
0.74795854 -0.06438005 0.052650213 7305280
0.71784461 -0.053761914 0.053945553 6712123
0.73039979 -0.052465089 0.057348728 6052910
0.74392897 -0.052154828 0.055691332 6053678
0.71668482 -0.043632373 0.054317638 6118954
0.72937125 -0.041217394 0.058309644 5197857
0.7418173 -0.043718971 0.056352705 5855022
0.72310048 -0.033094741 0.055046447 5264418
0.73314577 -0.030702949 0.057030976 4800796
0.7441811 -0.035231769 0.056235999 5394479
0.71977937 -0.028985662 0.05448224 5197086
0.73054397 -0.022639394 0.057490863 5722151
0.74462736 -0.023498923 0.051849708 5589549
0.75391728 -0.020593362 0.052162588 6049585
0.72674108 -0.018601067 0.054803811 7562050
0.72982025 -0.10213025 0.068149872 13942726
0.73108149 -0.10482249 0.067952394 14336971
0.75958538 -0.10146726 0.062852755 13942975
0.72784626 -0.096166447 0.062500134 10594713
0.73269016 -0.093829319 0.067898072 4352844
0.74265361 -0.096464783 0.069021851 9545625
0.75652373 -0.095560282 0.064961776 8428928
0.73363066 -0.073922567 0.063536778 9214856
0.74539387 -0.073453836 0.066880777 11124633
0.76050681 -0.072606772 0.060806289 7441007
0.72619057 -0.066107221 0.063016154 5594152
0.73677474 -0.064299315 0.062257141 5133603
0.74555731 -0.060936201 0.063617796 5528631
0.75428182 -0.066734925 0.062014692 5464361
0.71626556 -0.056596346 0.06593819 5922606
0.72344726 -0.055227611 0.063716814 5593892
0.73532647 -0.052846603 0.066742852 5330732
0.74659592 -0.052369535 0.060917951 5132319
0.71755409 -0.044182599 0.065809749 5395749
0.72289777 -0.042581886 0.06391874 5461028
0.73181528 -0.041838154 0.066278815 4144920
0.74293935 -0.041252974 0.064724088 4869921
0.7245242 -0.034137838 0.063814923 5526303
0.74780834 -0.032718267 0.064233832 4538396
0.71993655 -0.028961295 0.062810525 5789484
0.72627527 -0.023256518 0.065121129 5195817
0.73436391 -0.027460448 0.064864092 4867863
0.74373651 -0.021412572 0.061725855 5328417
0.75325662 -0.023968458 0.062212944 4998690
0.72884762 -0.11013753 0.07937178 14468559
0.73046374 -0.10753033 0.073645227 14074313
0.74986333 -0.10390811 0.07566791 13746117
0.72871017 -0.097061358 0.073698245 11645867
0.73713517 -0.092202529 0.07628186 5264433
0.7453599 -0.092341423 0.076701477 7373405
0.72332621 -0.082783721 0.076560579 10127735
0.7448715 -0.081907339 0.073369451 10916226
0.75280976 -0.089749031 0.070036314 4932634
0.71446991 -0.075809792 0.075832181 9209964
0.72385222 -0.073347986 0.077584565 6380568
0.73839325 -0.072392769 0.075589158 8224856
0.707973 -0.066387601 0.072931372 7503193
0.71578377 -0.062097665 0.072941497 6778937
0.72007591 -0.067379661 0.073202595 5333045
0.73525631 -0.063998505 0.076327987 6582075
0.7066859 -0.05635161 0.074785635 6713411
0.71595651 -0.051002271 0.073036492 5925173
0.72211176 -0.054938383 0.073476493 5858102
0.73267597 -0.051979385 0.076192811 7238474
0.70887363 -0.048212621 0.074625939 6254147
0.7138238 -0.041350126 0.073759377 5726258
0.72093487 -0.045275386 0.074337915 5726249
0.73308307 -0.042782865 0.076441742 6384190
0.72525579 -0.035364274 0.072586365 4342299
0.74029541 -0.033322651 0.073834322 5662764
0.71637619 -0.02534797 0.075919472 3813392
0.74058682 -0.024140596 0.075957768 5789238
0.71757329 -0.097955324 0.085404009 14470351
0.72996813 -0.090912722 0.086415172 4612905
0.74534303 -0.092534743 0.085086741 6848333
0.71799183 -0.085691586 0.083096504 7829590
0.72566843 -0.082390726 0.087826386 6640955
0.73016196 -0.085021019 0.08110258 8023636
0.7416718 -0.08208815 0.084994823 7956563
0.71289819 -0.075732738 0.083419338 8288595
0.73766452 -0.072719909 0.086753286 6974526
0.74025184 -0.078428134 0.088989742 6968885
0.70582682 -0.067155898 0.083035037 6843962
0.71193558 -0.062047917 0.081637658 6712631
0.72200912 -0.069857739 0.081934482 6580793
0.73375672 -0.064362794 0.087544553 6778684
0.70342386 -0.055337369 0.083988555 6844214
0.71637028 -0.054037437 0.082295164 6711865
0.73066628 -0.053253077 0.085595153 6645034
0.70483398 -0.045422513 0.082977496 6646073
0.71173513 -0.042768814 0.081850223 6449471
0.72028655 -0.043189529 0.082974747 6317107
0.73002422 -0.045047183 0.085954078 6381607
0.71486586 -0.034474324 0.081626892 6186034
0.72370851 -0.032118592 0.082866713 5724205
0.73442847 -0.03394188 0.084796987 6052903
0.7147128 -0.025341131 0.083965719 4608034
0.72385168 -0.023510274 0.081926726 3684619
0.7439028 -0.022767978 0.087576263 5328165
0.73409462 -0.016603343 0.088032573 7561802
0.75022393 -0.015092493 0.087922394 8875608
0.71900791 -0.09801247 0.090876713 14142413
0.72167236 -0.093018383 0.091507629 5734981
0.73313266 -0.094303034 0.093947202 6849372
0.74758327 -0.091959886 0.095024168 6584936
0.71735662 -0.086992711 0.092789486 6712901
0.72424281 -0.083775781 0.097836599 5785394
0.74652767 -0.082634389 0.097292647 9273193
0.71244121 -0.075701296 0.09306927 7695943
0.72450793 -0.07173343 0.095602997 7436101
0.74116611 -0.075891122 0.095843635 6841912
0.70802236 -0.064578541 0.093346395 6976322
0.71827137 -0.062968269 0.090533152 6383150
0.73651075 -0.064783975 0.098125353 7766610
0.7053507 -0.053889003 0.092982739 6316591
0.71876323 -0.055046357 0.094545543 5921834
0.7329008 -0.053682331 0.096190713 6053163
0.70237362 -0.048067365 0.093903132 6053680
0.7146911 -0.043490369 0.093584374 5593640
0.72010213 -0.041120086 0.09142442 5461797
0.73272735 -0.042687729 0.095209017 5526560
0.70531541 -0.039971285 0.09377493 5790247
0.71187705 -0.035584889 0.093801439 5461791
0.72252977 -0.034080997 0.094984643 5066520
0.73771697 -0.031806182 0.099044889 5460519
0.70957357 -0.029070431 0.093590066 5592610
0.71585751 -0.023546092 0.092956439 5526308
0.72621894 -0.022622097 0.092661753 5329189
0.74434954 -0.023176083 0.095792636 5132578
0.72378123 -0.01499011 0.092512131 6704422
0.73690367 -0.01925355 0.097516134 5787430
0.74242949 -0.013403533 0.096739948 7161898
0.75048447 -0.017493047 0.09801434 5983523
0.72745591 -0.093386434 0.10495601 13221580
0.7367655 -0.092106119 0.10170712 7240805
0.75177288 -0.090523437 0.10383064 13549496
0.71957403 -0.08964511 0.10186797 8093552
0.72507066 -0.084856175 0.10519186 9403258
0.73436189 -0.082336083 0.10409989 8154977
0.75265092 -0.082144715 0.10400356 8483939
0.71668881 -0.073650338 0.10469999 8619610
0.72469747 -0.07647232 0.10529622 8816462
0.73093152 -0.07264673 0.10666378 8819807
0.74745059 -0.073585123 0.10482757 10462834
0.75697201 -0.079648085 0.10918207 11844775
0.71244508 -0.063574217 0.10354474 8029775
0.72382778 -0.063943796 0.10303338 7698766
0.74299949 -0.064308047 0.10741492 9279858
0.70804483 -0.056224849 0.10463309 6844480
0.71296257 -0.051240955 0.10357669 5922346
0.72273326 -0.05440025 0.10379021 6118955
0.73707098 -0.051477458 0.10933562 6119469
0.74089015 -0.056967925 0.10877079 7504201
0.70723325 -0.048063722 0.10460462 5987881
0.71309054 -0.043019399 0.10364708 5592354
0.72211599 -0.042171422 0.10460684 5328421
0.7365033 -0.04590011 0.10686931 5396773
0.70892638 -0.039921749 0.10453419 5592350
0.71699375 -0.034751296 0.10346055 5394971
0.72623712 -0.034731891 0.10332508 4934680
0.74523467 -0.031980019 0.1063845 5656098
0.71585995 -0.027501592 0.10374615 5459741
0.72337085 -0.021586454 0.10407381 5984547
0.73368144 -0.025542261 0.10470128 4868114
0.74801975 -0.023309954 0.10086644 5853475
0.75474769 -0.023322403 0.10564958 5721889
0.72957665 -0.014966551 0.10000104 4595456
0.73978174 -0.019873928 0.10522918 5787165
0.7267248 -0.082159162 0.11064863 10986152
0.74426156 -0.081830896 0.1119976 12104621
0.72735882 -0.07382188 0.11069119 9741168
0.7350297 -0.074159153 0.11583199 12895912
0.74242097 -0.073411591 0.1127858 10266478
0.75578725 -0.073647819 0.11512157 11910042
0.71906704 -0.064478099 0.11292313 9871735
0.72774392 -0.063635282 0.11338386 10199149
0.73486918 -0.065186702 0.11788705 11844504
0.74723506 -0.065528288 0.11330798 13358244
0.76320678 -0.0687038 0.11448596 11712636
0.71586752 -0.055275906 0.11564636 9938044
0.72687227 -0.051093761 0.11404127 6118957
0.73950064 -0.051797308 0.11717884 5925170
0.71494526 -0.045605749 0.11485098 5659177
0.72797543 -0.04270174 0.11160879 4803607
0.73486054 -0.042836972 0.11477675 5001243
0.74100465 -0.040838391 0.11738236 5132321
0.71579218 -0.035749823 0.11397313 5656093
0.72531682 -0.033997998 0.11566754 5524777
0.7334798 -0.03596174 0.11370903 5196569
0.74642956 -0.031650957 0.11440039 4800537
0.75082093 -0.034867618 0.1111975 5131030
0.727449 -0.025935242 0.11251086 5984041
0.73269129 -0.026330069 0.11361893 5130021
0.75615788 -0.029140759 0.11085044 5392171
0.76251656 -0.023297247 0.11040609 5456430
0.73326272 -0.060234129 0.12592071 14670782
0.74347425 -0.066034004 0.12672701 13884088
0.75544614 -0.066123575 0.1248152 12764590
0.76686412 -0.066228695 0.12258469 12632747
0.71746629 -0.052512698 0.12295268 7899742
0.72442913 -0.054364864 0.12380943 10726525
0.73189765 -0.052068044 0.12658174 7571035
0.74583781 -0.053910263 0.12375428 10662279
0.76603174 -0.057831835 0.12567744 10201687
0.71642464 -0.046220195 0.12724049 6647365
0.72301352 -0.043277428 0.12492011 5133335
0.73551512 -0.046792816 0.12897356 6908988
0.74090338 -0.044645149 0.12086214 5659171
0.71595079 -0.039841551 0.12355775 5591075
0.75470644 -0.057105292 0.13000016 9672799
0.76987934 -0.055237751 0.13100705 7234903
0.73788273 -0.044241782 0.13142517 4605223
0.74481714 -0.046850555 0.13032426 10262395
