# .PCD v0.7 - Point Cloud Data file format
VERSION 0.7
FIELDS x y z rgb
SIZE 4 4 4 4
TYPE F F F U
COUNT 1 1 1 1
WIDTH 186
HEIGHT 1
VIEWPOINT 0 0 0 1 0 0 0
POINTS 186
DATA ascii
0.70163745 -0.11832435 -0.020279258 13154247
0.71974874 -0.10954763 -0.021368088 12631003
0.70771605 -0.14648244 -0.01486323 13290964
0.71474016 -0.1405257 -0.014735833 10728100
0.74238819 -0.14869386 -0.011951938 9740675
0.70514548 -0.13765517 -0.011848092 6911051
0.71206117 -0.13244033 -0.015074722 8291434
0.72128236 -0.13407277 -0.015548477 7435377
0.70619488 -0.12555717 -0.016730541 9603964
0.72130674 -0.12310672 -0.015706534 3025174
0.70780838 -0.11728121 -0.013312653 4670243
0.71334404 -0.11851297 -0.013397567 5062955
0.72432172 -0.11467682 -0.014445689 6316370
0.70961857 -0.10883737 -0.014447197 5261359
0.7162261 -0.10533483 -0.012238767 3682579
0.72509921 -0.10635992 -0.015925063 3611419
0.70950371 -0.098745942 -0.016258359 5653300
0.71716189 -0.095020525 -0.01338423 4602402
0.70599478 -0.087219998 -0.018424496 7363415
0.72516197 -0.085586101 -0.01466573 6903625
0.76595521 -0.082041524 -0.013633654 6117445
0.70925742 -0.078467123 -0.019912899 8152680
0.71823275 -0.074184328 -0.016513936 8218980
0.73947376 -0.073906079 -0.015091687 7824480
0.7482819 -0.072446257 -0.011088848 7562863
0.76056314 -0.076748386 -0.013065457 7234920
0.71219212 -0.066607781 -0.015937626 8351083
0.73340106 -0.066102415 -0.014571562 8284777
0.74760032 -0.063768342 -0.011721864 7760242
0.77541918 -0.062501222 -0.011093795 12959463
0.78181392 -0.067689598 -0.011817321 13157609
0.72540992 -0.14269465 -0.003599558 12175313
0.73965257 -0.14173549 -0.0041552391 13753568
0.71606272 -0.13307889 -0.0029674917 6780749
0.72542632 -0.13622284 -0.0078135999 9741953
0.73538786 -0.13624549 -0.0043210853 10727090
0.70693988 -0.12578636 -0.00216043 8161115
0.71249288 -0.12202307 -0.0094535053 5332537
0.72253621 -0.12200468 -0.0066081695 7241042
0.7055425 -0.11670303 -0.0017654151 5529143
0.71334916 -0.11274289 -0.0083300993 5922874
0.72136724 -0.11471922 -0.0049142074 6120766
0.70765358 -0.10744332 -0.0039180368 5397558
0.71360189 -0.1055178 -0.0020387955 5593653
0.72273403 -0.10732662 -0.0068161916 5660470
0.7161752 -0.094623774 -0.0034068897 4999454
0.72781885 -0.094969787 -0.0078046452 4870442
0.73246688 -0.086203396 -0.0078421365 5522728
0.76746488 -0.07557065 -0.0084874332 13223665
0.78877598 -0.066455975 -0.0070632845 13156318
0.7174387 -0.14304259 0.0038223267 13291232
0.72664464 -0.14621706 0.0048145242 13619681
0.73793137 -0.14691788 0.0053538783 13880024
0.72428799 -0.13876569 0.0064414442 11055812
0.73093945 -0.1334722 0.00380986 9017742
0.70683396 -0.12402649 0.0096487701 6187574
0.71266675 -0.1245721 0.0020334348 7307590
0.72316921 -0.12274864 0.0034162812 7834448
0.70611149 -0.11345868 0.0047344342 5397294
0.72205722 -0.11456886 0.0032725353 6119989
0.70878321 -0.10748816 0.0078598708 5264425
0.71592748 -0.10086201 0.0043108948 5395501
0.721699 -0.10635857 0.0031481236 5791025
0.71271092 -0.096267462 0.0033994317 5394725
0.72481167 -0.093332313 0.0045941705 5328163
0.73066181 -0.086291865 0.00041637011 5455646
0.72232956 -0.14471598 0.014233775 14804462
0.74269873 -0.14420885 0.012712346 14407125
0.70992225 -0.13473757 0.010022283 7834466
0.71394664 -0.13164248 0.016542902 7834721
0.72960413 -0.13334665 0.01474514 10597277
0.70891398 -0.12225939 0.019153163 5726004
0.72434151 -0.12252942 0.014355982 6253885
0.70831579 -0.11499621 0.019533306 5527844
0.71339995 -0.11990324 0.011139199 5594414
0.72297716 -0.11436839 0.014188202 5264430
0.71395588 -0.10762203 0.014879363 5264422
0.72488159 -0.10599705 0.014173878 5330473
0.71719557 -0.095295325 0.010843873 5262116
0.72555256 -0.096976042 0.014463288 4935201
0.73458153 -0.091362923 0.014450526 5197092
0.73460555 -0.08656536 0.012743241 5131046
0.72311586 -0.14294466 0.024085969 13686715
0.74328429 -0.14124225 0.021074118 13816004
0.71410918 -0.13325605 0.025597632 8360802
0.72557217 -0.13492706 0.025006833 11516828
0.73772931 -0.13573523 0.023461467 11911846
0.71395922 -0.12604825 0.027369596 5990454
0.7257666 -0.12230674 0.025316125 6648379
0.71236658 -0.11748641 0.026298434 4409890
0.72490436 -0.11410879 0.025166055 4473628
0.71468824 -0.10595373 0.025160501 4606239
0.72882462 -0.10558434 0.025307858 4803610
0.72453225 -0.09539856 0.023843046 4802594
0.73376024 -0.094109818 0.024094701 4604955
0.70890337 -0.1409844 0.035154164 9346682
0.71662891 -0.14345261 0.036438577 10463120
0.72880977 -0.14131524 0.033914998 10792585
0.70625961 -0.13306147 0.034871504 7504725
0.72164983 -0.13233058 0.036878608 7833172
0.7303564 -0.13581306 0.031219235 9412461
0.70694733 -0.12603602 0.035094276 6714437
0.71912026 -0.12246583 0.035671115 6648901
0.70652246 -0.11666632 0.034443639 5858617
0.7192691 -0.11429437 0.035584494 5858615
0.70668179 -0.10732183 0.035741266 5660466
0.7186619 -0.10616353 0.035446435 5858360
0.70802438 -0.096287571 0.035517663 5528117
0.7152698 -0.095752738 0.035380512 5725231
0.72073901 -0.095989153 0.03639181 5791277
0.73044807 -0.091550648 0.030714044 5986614
0.72192073 -0.087708727 0.035674267 6714198
0.73182917 -0.083053954 0.033468507 5791810
0.72791392 -0.078608476 0.037732974 5723687
0.73498803 -0.074360006 0.033601359 4539940
0.70839435 -0.14222679 0.042441696 8030045
0.72516418 -0.14456785 0.043593984 9938302
0.70247835 -0.13362163 0.042527586 7239756
0.71475846 -0.13516073 0.045448631 6845249
0.70679343 -0.12932278 0.043838486 6778686
0.71578646 -0.12338526 0.045226216 6253107
0.70580816 -0.11870854 0.043128639 6054708
0.71412349 -0.11445342 0.045868911 5725484
0.70788294 -0.1078444 0.042400301 5922867
0.71528542 -0.10626575 0.045890674 5725226
0.71255779 -0.097114109 0.04578672 5592873
0.71739495 -0.085074894 0.044423759 5591592
0.7271871 -0.082229927 0.045074627 5789232
0.72959083 -0.077921405 0.045941599 5852454
0.73871112 -0.073868446 0.042188659 5723692
0.71546656 -0.1454512 0.052711871 10793859
0.72458249 -0.14104366 0.055210404 12111302
0.73043501 -0.14650841 0.05043754 9538393
0.70354962 -0.1357764 0.053958669 7504204
0.71411163 -0.13785852 0.059351638 8558444
0.72017837 -0.1330063 0.054673061 7833427
0.70744777 -0.12867202 0.054267332 6516280
0.71684515 -0.12315455 0.057787843 6253107
0.70457172 -0.11431572 0.051970445 5462310
0.71502906 -0.11425608 0.056613795 5527079
0.70406646 -0.10595159 0.052739844 5329954
0.71619254 -0.10606806 0.056654513 5395747
0.70748621 -0.093890652 0.053991549 5198110
0.71571797 -0.094976619 0.056171343 5132574
0.71502954 -0.08663898 0.055993605 5459750
0.72500402 -0.086305186 0.051991038 5198368
0.73132145 -0.080146998 0.052566692 5525540
0.73550522 -0.073767364 0.054592453 5717537
0.74409986 -0.073174275 0.052969337 6049840
0.75226867 -0.066560283 0.051693626 5259303
0.71455002 -0.14094901 0.064949989 11452573
0.7250272 -0.14447269 0.064626381 13883823
0.73439908 -0.14626399 0.061735362 13619091
0.70612413 -0.13085096 0.063695595 7503435
0.724599 -0.13522239 0.065794766 9477997
0.70630074 -0.12428365 0.062620677 6384438
0.71575028 -0.12639943 0.069128498 7832145
0.72112322 -0.12194724 0.06538289 6976321
0.70600677 -0.11500578 0.06192898 5330724
0.7154001 -0.11535688 0.067108594 5988151
0.70640892 -0.10613176 0.060829148 5132573
0.71216476 -0.10341255 0.067274444 5197345
0.72041345 -0.10566732 0.065143712 5198625
0.71596211 -0.095452309 0.066166185 5131034
0.72293174 -0.093053252 0.065275222 5197088
0.72729474 -0.085675783 0.063203469 5328418
0.73636615 -0.078723975 0.064412296 5719594
0.74529904 -0.075300425 0.062214583 5785900
0.71383488 -0.13246094 0.070860207 8819547
0.72074115 -0.13166919 0.075394377 9474417
0.73010802 -0.13929772 0.075185642 10790799
0.71174192 -0.12706748 0.073223688 8554076
0.7258817 -0.12254731 0.076213904 10265495
0.73156381 -0.12962036 0.072117746 9081969
0.70850456 -0.11536486 0.072579794 6383677
0.7175864 -0.11579426 0.079818815 9674110
0.72500217 -0.11620042 0.072514132 6910548
0.70956981 -0.1059791 0.07173039 4803352
0.71710753 -0.10509306 0.079089791 5132065
0.72388178 -0.10532179 0.073615827 5263907
0.71617746 -0.099830098 0.073251873 5262367
0.72367579 -0.09578345 0.074060842 5327395
0.73089814 -0.091063619 0.071678877 5131820
0.72631073 -0.11599544 0.082096435 10328477
0.71700406 -0.10737884 0.087036461 5000742
0.72482139 -0.10515328 0.081794366 5330213
