# .PCD v0.7 - Point Cloud Data file format
VERSION 0.7
FIELDS x y z rgb
SIZE 4 4 4 4
TYPE F F F U
COUNT 1 1 1 1
WIDTH 152
HEIGHT 1
VIEWPOINT 0 0 0 1 0 0 0
POINTS 152
DATA ascii
0.73241311 -0.083521388 0.0042629377 13292249
0.79566568 -0.089680582 0.0017858744 14276589
0.72730029 -0.074063338 0.0048856903 9345671
0.73188204 -0.076168321 0.0037221834 9608075
0.71918672 -0.06205491 0.0017955154 7828341
0.72603929 -0.063368171 0.0050905943 5592385
0.71691173 -0.052787911 0.0049609146 6447447
0.72015774 -0.055612147 0.0081446618 6513220
0.7179262 -0.044580773 0.0034968704 8222575
0.72291064 -0.049827144 0.0047980547 7041609
0.71827322 -0.035285737 0.0030997444 4601126
0.72497976 -0.031791735 0.0032358579 5590591
0.7033478 -0.021006623 0.00038172305 12497339
0.72977698 -0.025478864 0.0022427589 4930096
0.73351455 -0.023714028 0.0055276621 4207905
0.73653233 -0.019700715 0.0040633455 4996651
0.72768581 -0.0065432247 0.00016829371 7166804
0.73603457 -0.0037551001 0.0039992332 6708057
0.76191968 -0.0090215113 0.0027588606 6707537
0.77558011 -0.008975504 0.0053982437 6510696
0.70967478 0.0071045086 0.00027807057 9272712
0.73412848 0.0055458951 0.0036776252 7364443
0.74106747 0.0095187509 0.0011619776 7692383
0.71215677 0.016340727 0.0012990087 8153453
0.72971332 0.0142444 0.0093433112 8021857
0.73574841 0.014469776 0.00091402233 7495515
0.74198127 0.016838873 0.0036200956 7823717
0.71262413 0.027501153 0.0015636533 8020839
0.73068577 0.022238113 0.0010887682 7692897
0.74633813 0.025891243 0.0029735714 8086634
0.722844 -0.070843518 0.014274511 11452827
0.73594129 -0.076839179 0.013066232 10728857
0.71858615 -0.062637307 0.01170129 6649930
0.72490269 -0.064884603 0.018097416 8493160
0.7157793 -0.055730611 0.01363758 6846030
0.72147465 -0.056243442 0.019488141 6318917
0.71452999 -0.044851497 0.013305439 6253637
0.71674049 -0.035491213 0.01307917 5397300
0.72003448 -0.034166768 0.011439003 5068339
0.72792345 -0.024044039 0.013641917 4276772
0.73346859 -0.020273641 0.019574612 4671522
0.73642349 -0.014923573 0.014482982 7759961
0.72710919 0.0053054048 0.015333399 6640451
0.73303688 0.0040398929 0.014237598 6443328
0.72906798 0.016770354 0.015340999 7098951
0.73310548 0.014431524 0.015831569 7296845
0.72539663 -0.071062416 0.024066245 12637105
0.73338318 -0.076161787 0.028106343 13159626
0.71787608 -0.060891226 0.023668895 7966562
0.72501725 -0.067052297 0.024217363 11190939
0.7160061 -0.051818628 0.024047405 5923896
0.71785825 -0.045304839 0.022874525 5528365
0.71837127 -0.034306705 0.024153138 5001767
0.72108263 -0.036447659 0.02077572 4936231
0.72400123 -0.025663851 0.02353856 5132843
0.72745085 -0.019712893 0.023499407 4213786
0.73396349 -0.01414861 0.025019819 7497555
0.72627324 -0.0039894455 0.024700826 4741212
0.72933781 0.0027492917 0.022263937 3748895
0.73015827 0.013741489 0.020839736 6308176
0.72668242 -0.07266672 0.03393006 11649443
0.73297179 -0.074729621 0.036048651 13227976
0.72396809 -0.063546829 0.033668302 7965534
0.73327935 -0.069029704 0.036312193 9283719
0.71899337 -0.05063694 0.035069458 5463090
0.72232425 -0.055849984 0.032523714 6845770
0.71969056 -0.042280026 0.03507458 5133604
0.72480613 -0.047929753 0.034703996 5133608
0.72364283 -0.0359612 0.035322983 4738846
0.72727889 -0.02487665 0.034719154 4475165
0.73770618 -0.023395633 0.037975863 3553815
0.72740763 -0.019785115 0.031970721 3883794
0.73415834 -0.015713541 0.033930097 3615761
0.7235741 -0.0036442836 0.03541474 3818547
0.73080456 -0.0030990355 0.032017216 5922651
0.72425723 0.0014540309 0.035741337 5854263
0.71923941 -0.064621694 0.04890294 7438672
0.72525436 -0.062003274 0.042059567 8031840
0.74007344 -0.069599636 0.040606886 10791568
0.71868598 -0.052891396 0.046270825 5858875
0.72385013 -0.056298882 0.042210929 6254404
0.72138649 -0.046049848 0.044079062 4805163
0.72198015 -0.035787072 0.044372935 4739884
0.71452421 -0.024945589 0.048800394 4804905
0.72593635 -0.024982734 0.044837821 4606502
0.72536844 -0.0048632859 0.043773543 5594969
0.73051441 -0.0011623753 0.04379414 3415552
0.72356272 0.0010525514 0.044349343 4668949
0.7291376 -0.081955723 0.059771568 11772835
0.71773237 -0.070128411 0.054464668 9677957
0.72430414 -0.074182816 0.053536773 12039340
0.71552306 -0.061972976 0.052828502 7964250
0.72040898 -0.065439008 0.054615572 8555879
0.71493649 -0.05536006 0.054181941 6910792
0.7125234 -0.046178948 0.053597856 6319681
0.71244079 -0.036073688 0.053911339 5923898
0.7134034 -0.025055012 0.055093154 5659953
0.71928668 -0.016098088 0.055928484 5722929
0.72240824 -0.013509969 0.05350738 7233609
0.72518325 -0.0049343854 0.052991036 3947550
0.72676218 -0.081801616 0.065398239 11314076
0.71597618 -0.071093611 0.064164467 10731916
0.72499532 -0.07693579 0.063924454 12109213
0.71380228 -0.06306082 0.06396728 7503952
0.72199702 -0.069570951 0.061579272 9149811
0.71361792 -0.054299749 0.064210318 6054196
0.70848536 -0.046051756 0.064336702 5791535
0.70858943 -0.035086431 0.063848644 5528618
0.71372318 -0.03898444 0.064935878 5659436
0.71387655 -0.025115615 0.064840131 5132838
0.71808505 -0.012910843 0.063588709 6050878
0.72109509 -0.017937563 0.066548288 5985074
0.72350425 -0.0043588476 0.063406073 4080164
0.72471797 0.0012327291 0.064742446 3749133
0.72639185 -0.081772596 0.070978075 11050128
0.71743876 -0.071227796 0.072317779 12111283
0.72622722 -0.074140489 0.075457714 13951677
0.73139828 -0.078554302 0.076514862 13159077
0.71424329 -0.062834963 0.07400696 8098149
0.72117567 -0.068119168 0.071145505 9019502
0.71386701 -0.05372607 0.075036772 6186556
0.70886683 -0.046017867 0.073371574 5396262
0.71304697 -0.04264693 0.076271847 5199141
0.70924002 -0.03507755 0.072953403 5198622
0.71253896 -0.034571406 0.073342361 5067295
0.7160632 -0.025746174 0.074986905 4869404
0.71875954 -0.013158111 0.074623115 5523499
0.72429168 -0.016533885 0.073470488 5326884
0.72517389 -0.0040006358 0.073073432 3684120
0.72679389 -0.072735749 0.082532421 11648107
0.73796302 -0.076533191 0.085783929 12761010
0.72312427 -0.064718805 0.083045453 10004602
0.73541641 -0.066926837 0.08802858 11251592
0.71820903 -0.054275587 0.084340125 7636314
0.72301883 -0.059465088 0.081483081 8821097
0.71550596 -0.043938112 0.085242212 5132834
0.71807373 -0.035491645 0.085265823 4934685
0.72020441 -0.037420318 0.083182067 4934683
0.72333467 -0.025894413 0.084783137 4868383
0.73416305 -0.022942465 0.087947451 5064483
0.72596145 -0.01473773 0.081770696 5128741
0.73426306 -0.011481963 0.083175957 5720373
0.72615302 -0.060125977 0.09196505 12109214
0.71936464 -0.05087021 0.095803842 6320201
0.72232336 -0.055831376 0.094774611 10264188
0.71955949 -0.042581119 0.0958317 5132317
0.72273088 -0.04449223 0.094675191 4870179
0.72461468 -0.035822306 0.092992865 4737304
0.73878223 -0.025710532 0.092717007 6050355
0.7449075 -0.027161574 0.095846146 5459238
0.72620547 -0.051858522 0.10348213 8490609
0.72405285 -0.044980779 0.10306443 5461803
