# .PCD v0.7 - Point Cloud Data file format
VERSION 0.7
FIELDS x y z rgb
SIZE 4 4 4 4
TYPE F F F U
COUNT 1 1 1 1
WIDTH 147
HEIGHT 1
VIEWPOINT 0 0 0 1 0 0 0
POINTS 147
DATA ascii
0.70477092 -0.11534289 0.028784692 14405352
0.70845467 -0.10676435 0.025271833 14536931
0.72881794 -0.070497513 0.026830427 12305358
0.72333264 -0.035143755 0.025067039 6640446
0.73257893 -0.02221946 0.025589973 8087375
0.74415708 -0.013197709 0.027015552 7823954
0.74365467 -0.0052721468 0.025318325 8414821
0.7556504 -0.0065149083 0.026654236 8415074
0.70380628 -0.10555208 0.033362947 10522004
0.70711774 -0.096020631 0.03420205 11969170
0.71192843 -0.098331496 0.032970563 10455159
0.71694773 -0.087786317 0.037177879 8415832
0.72525728 -0.082912207 0.036122099 13553865
0.72467136 -0.076662309 0.034200437 10727081
0.71816874 -0.066640176 0.034861196 7107155
0.72417676 -0.067385674 0.032979399 7834972
0.71624941 -0.055976164 0.033978391 6647115
0.7141028 -0.047094427 0.034457117 5790518
0.71678734 -0.038111284 0.033957198 5131309
0.72254413 -0.036425088 0.032642856 5067302
0.72654867 -0.027999297 0.033772785 4867107
0.73025799 -0.022954246 0.031339929 4338192
0.73887163 -0.016786132 0.032466054 5654053
0.74452603 -0.016061587 0.033002812 5326377
0.70699257 -0.10392773 0.04047814 10982049
0.71249247 -0.10421298 0.04042422 11510198
0.71550709 -0.095000982 0.043667886 8423798
0.71882081 -0.089366809 0.042348236 4083236
0.72530717 -0.086308688 0.042321678 7957357
0.7194376 -0.075397395 0.040403828 7568218
0.72353065 -0.078486502 0.044306189 10401417
0.71563649 -0.066688746 0.043788724 6843974
0.72147149 -0.06993942 0.041762754 7306317
0.71522492 -0.056309145 0.043560904 6317627
0.71519881 -0.046841796 0.043590199 5791022
0.71771073 -0.037344817 0.043150451 5461799
0.72592872 -0.02661638 0.043922137 5131038
0.73046732 -0.022061126 0.040092394 4867357
0.71714288 -0.11014047 0.050699651 14997994
0.71308047 -0.094955198 0.054885477 7638384
0.72048086 -0.096726432 0.052595824 11124392
0.71900868 -0.089151159 0.05352582 2241812
0.72532517 -0.085471757 0.051271047 9146484
0.73212457 -0.082712911 0.056824971 14080450
0.71884853 -0.075531527 0.05088225 8032866
0.72531557 -0.077585325 0.054148149 10927264
0.71658504 -0.066848725 0.053993925 6646594
0.72016734 -0.069676667 0.053118832 6913366
0.71622616 -0.056104526 0.053989746 5856556
0.71785134 -0.046900511 0.05372161 5593386
0.71872336 -0.038116753 0.05443126 5592878
0.7230745 -0.036077205 0.053114086 5131556
0.72692907 -0.027692374 0.052167065 5194786
0.73210502 -0.025690746 0.05564883 7364945
0.71437311 -0.095872685 0.064492576 8820871
0.70893168 -0.086929932 0.064237565 14011064
0.7139945 -0.087609321 0.067964353 8353626
0.73518527 -0.082004637 0.063342035 12241812
0.72630751 -0.074225098 0.061206058 13690324
0.73212075 -0.078443691 0.06367287 13028786
0.71757913 -0.067003168 0.0625645 6385227
0.72148979 -0.068554193 0.065147094 6847817
0.71653694 -0.056354363 0.064326368 5264676
0.72088182 -0.058359582 0.061287098 5527595
0.71621436 -0.047522463 0.066418022 5133097
0.72094148 -0.046214052 0.062947236 5264419
0.72414196 -0.036700271 0.064140201 4737308
0.72839093 -0.027482653 0.063476875 5720362
0.73171544 -0.027411532 0.060017791 5656883
0.71279418 -0.1049066 0.073695652 14272204
0.70778787 -0.093947455 0.076150499 7571813
0.71250308 -0.096668288 0.072371677 9807765
0.70527381 -0.08427012 0.077861309 5790004
0.71271932 -0.088337496 0.073428772 3624230
0.70659286 -0.075438961 0.075952277 8026708
0.71041608 -0.075800493 0.073350266 7038786
0.70561105 -0.066127218 0.073417135 6449979
0.70584881 -0.055689707 0.072862759 5857847
0.71156436 -0.052825339 0.070135385 5265197
0.70818615 -0.045649007 0.077741191 6252086
0.71203291 -0.046904616 0.072788827 6251572
0.71495628 -0.037639249 0.073541269 5264942
0.7244516 -0.032983616 0.071878806 5198121
0.71923244 -0.026079316 0.076909408 9271912
0.72453171 -0.018323079 0.079990834 4533521
0.703807 -0.10392992 0.082358137 14403792
0.70529944 -0.094465673 0.085910782 8887420
0.71101671 -0.096314147 0.081915662 11319721
0.7032252 -0.084458753 0.085869141 4476192
0.70324528 -0.076401398 0.085790686 7364418
0.70373416 -0.066910073 0.084789097 5789745
0.70326263 -0.056406919 0.082982995 6185260
0.7049467 -0.045015153 0.085211284 6184751
0.70537919 -0.035997689 0.085857987 6119479
0.7123425 -0.033151306 0.083161063 5986868
0.71681726 -0.027350582 0.083940402 6315578
0.72363126 -0.023030981 0.081453025 3749916
0.72115892 -0.10516299 0.095584951 14469581
0.706999 -0.093537465 0.094597206 8363133
0.71321344 -0.096567988 0.09503103 11974832
0.72113371 -0.099586636 0.095495135 14666708
0.70671439 -0.084684223 0.094800025 5133876
0.70741433 -0.07486023 0.097239755 6311731
0.70572615 -0.067308225 0.095402025 6118705
0.70418692 -0.056485619 0.09588673 5856297
0.70620221 -0.045697916 0.095373102 5789732
0.71041173 -0.042273149 0.099799901 5525790
0.70824492 -0.036128871 0.096784614 5723943
0.71386224 -0.034270119 0.09470997 5460250
0.71668959 -0.027808929 0.093333513 5855017
0.72322434 -0.024421744 0.095840156 6116139
0.73311073 -0.018632045 0.095108211 11898245
0.710379 -0.093058765 0.10478964 13745349
0.72073352 -0.093194179 0.10286415 14865370
0.71397024 -0.084686957 0.10403637 9537409
0.72324485 -0.081867591 0.10844254 12372631
0.71405333 -0.076883256 0.10471201 7829587
0.72423655 -0.078414805 0.10985832 9805937
0.70878559 -0.064962685 0.10277177 7502154
0.71318859 -0.068450682 0.10582891 8094544
0.70897692 -0.055328771 0.10432494 6184754
0.71202499 -0.05831695 0.10565938 6448693
0.70872378 -0.046929412 0.10418068 5724709
0.71229273 -0.04529196 0.10566751 5460513
0.71587265 -0.034897327 0.10449174 5394723
0.72452897 -0.031174958 0.10740087 5721370
0.72600347 -0.027756449 0.10242085 5785890
0.73472214 -0.024688784 0.1065031 5520410
0.73214424 -0.082510911 0.11210482 12634265
0.7255888 -0.072891384 0.11296447 10727291
0.73403525 -0.078327917 0.11606771 13489342
0.71804357 -0.065758877 0.11269206 10004337
0.72848254 -0.068699993 0.11758837 10463085
0.7134679 -0.05661035 0.11457602 7240011
0.71452159 -0.045083143 0.1164005 5789986
0.71807277 -0.036536362 0.11395887 5852965
0.72105527 -0.037931044 0.11398542 5196062
0.73628217 -0.07119339 0.1232284 7305293
0.74033588 -0.076847158 0.123928 14934225
0.72998202 -0.067222729 0.12055853 10000222
0.73543149 -0.068487465 0.12237927 9543011
0.74059075 -0.067318693 0.12859695 8556127
0.7169134 -0.055356294 0.123777 9478002
0.72838336 -0.059662126 0.12482557 12437127
0.71835035 -0.046460371 0.12437111 5591848
0.72177815 -0.04610201 0.12523642 7238221
0.72416574 -0.054401733 0.13098361 11773580
