# .PCD v0.7 - Point Cloud Data file format
VERSION 0.7
FIELDS x y z rgb
SIZE 4 4 4 4
TYPE F F F U
COUNT 1 1 1 1
WIDTH 135
HEIGHT 1
VIEWPOINT 0 0 0 1 0 0 0
POINTS 135
DATA ascii
0.71953821 -0.043292914 0.022826456 10327182
0.76677543 -0.047359943 0.023422699 6186563
0.71413094 -0.034574494 0.023844374 8886643
0.7265169 -0.038612567 0.022555351 11450267
0.73259991 -0.037534207 0.028973147 12239531
0.70801806 -0.023215013 0.02403998 6252602
0.71866906 -0.027237106 0.025412723 7238729
0.70843261 -0.011979976 0.024143089 5263656
0.71752018 -0.018452512 0.025964484 5395754
0.70994854 -0.0045635472 0.024062119 5131557
0.71542555 -0.0097883809 0.02683261 5001252
0.70887995 0.0003683269 0.024199352 5131563
0.71494579 0.0053168144 0.024325091 5853507
0.71897066 0.012610234 0.022759609 6048596
0.72450393 0.016487429 0.024097107 5785675
0.7359941 0.019303001 0.025239997 6047299
0.72759438 0.021742554 0.028481916 9142666
0.72673583 -0.043291628 0.030382209 4209186
0.73757541 -0.041507948 0.034668714 10724706
0.76665622 -0.047150541 0.03214946 7371880
0.71737176 -0.032550931 0.033079647 10531728
0.72566146 -0.037121166 0.035162594 13489582
0.73640227 -0.035659518 0.038304061 14147763
0.71151197 -0.023290902 0.034843523 6384195
0.72075927 -0.027440147 0.034051895 8424037
0.70836377 -0.012195783 0.035673834 5132328
0.71689516 -0.014482154 0.035554513 5724210
0.70970464 -0.0023009123 0.03553351 5461285
0.71545041 0.0060696956 0.033856623 5459503
0.72016907 0.0046038125 0.035744742 5128995
0.72490191 0.013435726 0.032839216 6246982
0.73320746 0.015756201 0.036038719 5522225
0.73620605 0.02220317 0.035249308 6108978
0.76817048 -0.046422474 0.040117458 6321750
0.71415097 -0.034043919 0.048132069 10793601
0.72385669 -0.034432486 0.041104302 13360032
0.71139932 -0.023429889 0.044906411 6713423
0.72141695 -0.027746949 0.043127596 10136711
0.70937479 -0.012839761 0.04639028 4342556
0.71337628 -0.015516267 0.044551864 4537372
0.71436816 -0.0039842869 0.044756949 3355416
0.71408236 0.0011672019 0.045824371 4079888
0.7216832 0.0060713044 0.043388098 4667422
0.71597987 0.014089376 0.049472839 4143391
0.72486806 0.014091468 0.044158645 4996651
0.73176283 0.01632148 0.040997401 4930600
0.71603447 -0.043113798 0.056962237 8359520
0.72393 -0.045826916 0.056945298 6451771
0.70905161 -0.033909447 0.056258477 7963737
0.71471781 -0.035938233 0.054913003 9673584
0.70532143 -0.023557549 0.05585121 6187578
0.71404231 -0.028524 0.051509082 7962450
0.69718486 -0.013775341 0.058381461 5265448
0.70306277 -0.01248945 0.056300733 4673312
0.69654602 -0.0099214641 0.053833872 4409888
0.70257491 -0.0018588002 0.056570884 5264427
0.70834064 0.005807396 0.056426033 5526565
0.71331179 0.0060687023 0.054320745 5196070
0.71299493 0.01375475 0.057102557 5457701
0.72238463 0.016020454 0.055995181 9336939
0.71408892 -0.044476207 0.06449458 10794379
0.72519791 -0.045879535 0.061602764 10398076
0.70556957 -0.035013843 0.064852156 7765835
0.71845639 -0.039502814 0.066174403 9477738
0.69947237 -0.02401327 0.066605978 5922101
0.70628178 -0.02524738 0.067093849 6316594
0.71080196 -0.029337872 0.067528695 6579774
0.69900131 -0.014984596 0.067194574 5394979
0.70771921 -0.012117578 0.064262733 4935972
0.69956124 -0.001920809 0.067778379 5263140
0.70636362 -0.0020323365 0.064898677 5066021
0.7062943 0.0079885125 0.066132359 5130777
0.71546888 0.0087819174 0.066970199 5327644
0.70767659 0.011726619 0.065771267 5460015
0.71589607 0.018672539 0.064742811 5391915
0.72245395 0.017436534 0.066182815 5850929
0.72071058 0.024463838 0.065476201 11044735
0.7145009 -0.042977974 0.073785424 12109474
0.72506416 -0.04482124 0.073822886 12174231
0.70440644 -0.032061119 0.074456394 6845515
0.71021068 -0.03750192 0.07408233 8359783
0.70373422 -0.025157509 0.075525239 6317624
0.71355599 -0.02527469 0.078803062 6712128
0.70125353 -0.012754722 0.076064169 5263131
0.71229613 -0.012417115 0.079402238 5328927
0.70333159 -0.0020791879 0.0750117 5065502
0.71348101 -0.00075571239 0.079324067 5129754
0.70804286 0.0078818994 0.075709045 4736022
0.71738321 0.0083858632 0.078470021 5063442
0.7081601 0.011750231 0.071227938 5065498
0.71580696 0.017711988 0.075576283 3814678
0.72400171 0.015064675 0.07684347 4866844
0.71854389 0.023561932 0.070400223 7688766
0.72261167 0.024943065 0.07481809 9201759
0.73109937 0.021917365 0.075090915 4730125
0.71998847 -0.04300151 0.084586076 11908996
0.73475057 -0.041809775 0.085021369 12237955
0.71458119 -0.034437519 0.085988425 11450007
0.72469926 -0.03502905 0.086168058 12831156
0.70725888 -0.023224158 0.085251361 6054187
0.71709716 -0.024026807 0.089801639 5856299
0.70585787 -0.014483959 0.082880385 5460258
0.71397197 -0.014300731 0.089003347 4802329
0.7061969 -0.0033802034 0.081568122 4868373
0.71112657 -0.003689134 0.087373383 4868373
0.72255123 -0.0046263002 0.087345108 4800533
0.70875227 0.0008479734 0.082221858 5064720
0.71578997 0.005239103 0.086733311 4867860
0.72197783 0.0078398827 0.087714612 4933150
0.71814263 0.012436984 0.08160647 5064985
0.72480297 0.015971825 0.085124277 4998681
0.73089343 0.015470654 0.084141552 5193502
0.71385878 -0.032036535 0.095299512 10923914
0.72466117 -0.032495819 0.096690774 13621936
0.70878237 -0.02647851 0.093336657 5726501
0.71534044 -0.02328703 0.097386651 5264685
0.71440572 -0.013407926 0.095589943 4407581
0.72294092 -0.012775577 0.098893911 3024663
0.727341 -0.0048490856 0.093903795 4865315
0.73107761 -0.0035413499 0.097865939 3877400
0.74127489 -0.0019772872 0.099453256 4735269
0.72234654 0.0043807509 0.092563033 5522725
0.73589355 0.0037454639 0.094038077 5061921
0.74428946 0.0046054721 0.092798322 4732450
0.74329388 0.010615494 0.090111867 5721397
0.71599251 -0.030461377 0.1010695 11516071
0.71506763 -0.022844702 0.10419947 6317627
0.72418952 -0.024062017 0.10291508 8225893
0.71515942 -0.015847847 0.10288216 5063727
0.72984284 -0.014867904 0.10180956 5327418
0.73842901 -0.011274768 0.10292625 6510669
0.73403949 -0.0066731977 0.10291731 4471329
0.74605411 -0.0077174846 0.10431784 6511931
0.73695737 0.002023791 0.10085292 3611934
0.74694067 0.0014689192 0.10126583 4864295
