# .PCD v0.7 - Point Cloud Data file format
VERSION 0.7
FIELDS x y z rgb
SIZE 4 4 4 4
TYPE F F F U
COUNT 1 1 1 1
WIDTH 101
HEIGHT 1
VIEWPOINT 0 0 0 1 0 0 0
POINTS 101
DATA ascii
0.74557191 -0.020521039 0.038892552 9675647
0.75530839 -0.027117733 0.035589483 8750466
0.76200169 -0.029266661 0.032371759 7699035
0.74159974 -0.015273843 0.033896677 7765851
0.73981571 -4.8559159e-05 0.036786824 5462574
0.74119169 -0.0070552146 0.034392051 5329202
0.74431986 0.0062769959 0.035298795 4802600
0.74699837 0.012727324 0.034214675 4605221
0.75272298 0.021600731 0.033589244 5129265
0.76281804 0.0250764 0.030112274 6376769
0.77146959 0.029215973 0.032484531 6576194
0.78033519 0.036187191 0.030453309 7824737
0.75959653 -0.033711124 0.042226322 11582137
0.76300657 -0.038851991 0.045062829 12040125
0.75225353 -0.025823923 0.044685096 11053498
0.746086 -0.015574737 0.04559679 6910299
0.74294806 -0.0069478485 0.045962412 5726519
0.74165726 0.0016973596 0.046019502 5791798
0.74508709 0.012098078 0.045451604 5396016
0.75250006 0.018351633 0.04263027 5067046
0.75558519 0.025480088 0.044490308 6510147
0.75969052 -0.038045671 0.054618627 14602982
0.76302576 -0.036287267 0.053424537 13156291
0.74938983 -0.022250149 0.054463133 10000037
0.75386548 -0.028520662 0.054911274 13159649
0.74303746 -0.015038411 0.055707116 7306328
0.73935026 -0.0087470151 0.058056086 6385721
0.74151874 -0.0053288788 0.054860894 5858613
0.74300057 0.0017769216 0.056164548 5198890
0.74544472 0.012182366 0.056539401 5065506
0.75317121 0.015448274 0.054187592 5065766
0.75688076 0.023189798 0.052585699 5193498
0.76145142 0.022304593 0.059428781 4931870
0.76473749 -0.034851879 0.064378597 11645590
0.75550419 -0.025188278 0.065076217 13028282
0.74660796 -0.014582393 0.065668091 7240272
0.74331284 -0.0063598156 0.066249214 4870185
0.74622184 0.0024469255 0.066068105 4343071
0.7473051 0.011347882 0.064223692 5197094
0.75632334 0.015717793 0.06614475 4933415
0.76065892 0.022245472 0.06568943 4929302
0.75338453 -0.033725053 0.074486554 12367293
0.745574 -0.024431279 0.075434357 8293220
0.74200451 -0.013902021 0.074763805 6846276
0.7359581 -0.0087176468 0.079408474 6451260
0.74309248 -0.0024708863 0.074708976 5594931
0.73653579 2.2305641e-05 0.079165652 5792053
0.74365783 0.0060998299 0.074674904 5331238
0.74734116 0.013644421 0.074439354 5462065
0.75381649 0.024025556 0.074351706 6709823
0.74777442 -0.037598882 0.086898364 11383693
0.7506274 -0.03667026 0.082303375 11316632
0.74368954 -0.026739037 0.084798336 8029532
0.7387051 -0.015199812 0.081705689 6647617
0.73694348 -0.0028000437 0.083318889 6252342
0.73750865 0.0056925872 0.083288789 5659699
0.74301034 0.014372368 0.081890471 5856052
0.74620199 0.021111565 0.080209836 6973256
0.75028461 0.025504708 0.084224574 6840901
0.76430321 0.03455431 0.083153561 5192203
0.74909592 -0.038184714 0.095230818 9805450
0.74131393 -0.027497839 0.096091621 7504467
0.73499233 -0.015226617 0.093658894 5988916
0.73217344 -0.0039921491 0.092725091 5791273
0.73614907 0.0071692346 0.097094931 5264161
0.73780763 0.013217933 0.094900385 5329959
0.74074727 0.014329108 0.094506308 5263907
0.73999941 0.02062708 0.090053052 5724208
0.74723339 0.023877313 0.095823236 5591846
0.74987519 -0.031400759 0.10725859 13489598
0.75206417 -0.035490379 0.10507461 14737857
0.74490261 -0.025424309 0.10542922 9478008
0.73422635 -0.015802106 0.10317077 6778689
0.7426157 -0.015888799 0.10756635 7436878
0.73322582 -0.0057746428 0.10217165 5659175
0.74027556 -0.002716301 0.10579133 5658923
0.73568916 0.00013189018 0.10560972 5395749
0.74134582 0.0058178399 0.10578116 5132576
0.74448299 0.012824242 0.10638369 5066271
0.74839461 0.021299424 0.10654837 5393956
0.75281274 0.025638126 0.1030436 5328422
0.75333208 -0.026687797 0.11373621 10331005
0.74777931 -0.013772909 0.11603348 8421981
0.75243104 -0.01656577 0.11504009 8555105
0.74527472 -0.0061945789 0.11471649 7501913
0.74418473 0.002409759 0.11470497 5725237
0.74610943 0.012402676 0.11870039 5196575
0.75133783 0.015928216 0.11252499 4998939
0.77166331 -0.023362644 0.12469419 12300977
0.75891024 -0.013347762 0.12068816 8354921
0.76478052 -0.015140611 0.12321562 8487276
0.77119905 -0.014004421 0.12856755 10658439
0.74832964 -0.002386407 0.12287113 9212554
0.75512391 -0.0075388267 0.12688605 12107955
0.74838072 0.0055800346 0.12585203 5855549
0.75041354 0.01200502 0.12007624 4999967
0.7811442 -0.024632333 0.13066728 12760244
0.77018446 -0.018844947 0.13157362 10854590
0.76826763 -0.0099384338 0.13159513 7037236
0.74948347 0.0004894305 0.13137569 9802345
0.75169933 0.0037234889 0.13218415 8420958
