# .PCD v0.7 - Point Cloud Data file format
VERSION 0.7
FIELDS x y z rgb
SIZE 4 4 4 4
TYPE F F F U
COUNT 1 1 1 1
WIDTH 174
HEIGHT 1
VIEWPOINT 0 0 0 1 0 0 0
POINTS 174
DATA ascii
0.72990596 -0.089985937 0.026077226 13418713
0.73149288 -0.085973516 0.025742322 13288658
0.74777085 -0.081738278 0.02761808 11642037
0.73562503 -0.07744503 0.025119893 13288144
0.69410831 -0.033644464 0.025837967 7696994
0.69631147 -0.026490014 0.028645776 5132332
0.69780809 -0.017127382 0.026192697 6183227
0.7261492 -0.0016329014 0.02608832 6047800
0.72587007 0.0045581656 0.025098607 7494221
0.73643482 -0.084002592 0.037501886 13221051
0.74509668 -0.082527481 0.036448728 11379105
0.69494224 -0.061459437 0.035815418 11713951
0.70441866 -0.063810363 0.035770781 9672584
0.69441426 -0.055189215 0.03594543 7700823
0.70120758 -0.0511677 0.030666217 7108174
0.68770957 -0.045131356 0.034568079 6779971
0.69330144 -0.044684038 0.035882093 6449216
0.69287819 -0.031782754 0.036310434 6315053
0.69672155 -0.022234447 0.035421595 3945750
0.694915 -0.013128355 0.034307219 4867870
0.70581496 -0.013649595 0.032796986 5063194
0.71153164 -0.011959783 0.03870061 5457724
0.70111018 -0.0087917931 0.037235051 4866866
0.71146321 -0.0025852751 0.037466064 3747873
0.73225087 -0.0016047498 0.033894509 4143652
0.72456902 0.0014290595 0.030394763 5193004
0.7332744 0.0045069596 0.030718759 5719602
0.73839557 -0.086583912 0.046074226 10653828
0.74633747 -0.081892408 0.048521854 8095094
0.73585427 -0.075646609 0.044657841 4210978
0.74378592 -0.076631173 0.044115148 4670018
0.70335913 -0.063747622 0.044360694 12240819
0.71671921 -0.06632261 0.042309448 12830125
0.69468194 -0.053879336 0.047309071 8425835
0.70013505 -0.051998194 0.040985882 6780239
0.68570101 -0.041084383 0.040077239 6448186
0.69391221 -0.043540437 0.043712094 6119731
0.68542755 -0.032469578 0.040720642 5987892
0.69350368 -0.031965479 0.045011833 5591332
0.69567466 -0.0259877 0.041948538 5000485
0.70425719 -0.021504875 0.040398553 4145951
0.70635557 -0.013715146 0.042792786 5460028
0.70451689 -0.0063461736 0.045623623 5787212
0.71546537 -0.0031984141 0.045184374 7693163
0.73199844 0.0041625486 0.040259942 6378839
0.7466287 -0.081813388 0.057352856 9279113
0.73737335 -0.076739833 0.053319678 4412988
0.70640117 -0.062842458 0.053131416 12964784
0.71461129 -0.063329428 0.055203594 13094569
0.69864386 -0.053874101 0.05678688 8492653
0.7044313 -0.053929575 0.054958355 8623207
0.68756926 -0.041783303 0.051651657 5462061
0.69571859 -0.04332763 0.055858344 6317625
0.68728614 -0.033182032 0.052269235 4408097
0.69416559 -0.032209635 0.056606367 5263135
0.68795097 -0.025599074 0.053544596 5789741
0.69781339 -0.026733469 0.054115273 5526820
0.69695556 -0.015021062 0.055563964 5327657
0.70405316 -0.013913256 0.05442059 5787701
0.71299136 -0.013684017 0.055470742 5851696
0.70779067 -0.0041549094 0.057130992 6178623
0.7109744 -0.0035184631 0.050045162 7034712
0.69628197 -0.072591536 0.069961861 2366464
0.70334619 -0.060147382 0.065784656 11451796
0.71207672 -0.061490923 0.0611936 12767379
0.69430375 -0.052398518 0.067826927 8227157
0.70168191 -0.053517014 0.063131943 8687989
0.69330788 -0.041788895 0.065288387 4276509
0.70040101 -0.040784165 0.063055471 4935716
0.68927813 -0.033702273 0.060726941 4935704
0.69823194 -0.032363124 0.064563721 2896136
0.69461608 -0.024446508 0.06441541 4209941
0.70321333 -0.025550896 0.062759027 4210452
0.6961835 -0.016705509 0.065810338 4535571
0.70609772 -0.012801688 0.064948566 4998184
0.71692657 -0.012560036 0.061762284 5653554
0.71733975 -0.008816123 0.061278313 6311731
0.6993264 -0.07539697 0.076707169 5993024
0.70198548 -0.075819328 0.074712403 8685419
0.71195459 -0.075245179 0.073797271 7568473
0.69383752 -0.064815529 0.075250164 10065522
0.70093697 -0.066916801 0.075668506 9608043
0.6862011 -0.051986527 0.075300463 7107405
0.69501311 -0.057256352 0.071450576 8820838
0.6852085 -0.042671572 0.07484708 6186551
0.6924029 -0.046417724 0.07168299 6516032
0.68382937 -0.035133272 0.07625778 4475936
0.67871934 -0.02904159 0.075918719 4804403
0.68683124 -0.025380872 0.075976834 5133862
0.6928187 -0.029833447 0.071681693 4282142
0.6899156 -0.014546365 0.07369113 4933158
0.69571513 -0.016816428 0.076136939 6118456
0.70454407 -0.010229171 0.079200134 6247220
0.71368635 -0.082492098 0.08621151 11444371
0.72706747 -0.086299941 0.084586345 12628143
0.69653809 -0.072803155 0.087433144 12502928
0.70404935 -0.07598944 0.080234848 9278056
0.68768507 -0.06234552 0.084809832 8622691
0.69225526 -0.068335004 0.086586624 11189383
0.700544 -0.067231119 0.089959443 10663052
0.68373013 -0.053820472 0.084082484 6974780
0.69373119 -0.055712231 0.080040172 7305033
0.67753327 -0.043615397 0.084212974 6448178
0.68597287 -0.043915361 0.085730702 5658918
0.678074 -0.032414623 0.084706396 4803873
0.68490994 -0.0301024 0.08730603 5394981
0.68653059 -0.024210187 0.083755933 5067297
0.68686366 -0.012500593 0.083523296 5131805
0.69367087 -0.01640494 0.0879125 5131547
0.69374835 -0.00388999 0.085181639 9336156
0.70238698 -0.0043439222 0.087708816 5522213
0.71269155 -0.0042492058 0.085797831 6245423
0.71591252 0.0020445315 0.085566938 13544618
0.71523654 -0.0827557 0.093448721 10131067
0.72509122 -0.081790224 0.094592586 10327173
0.69436789 -0.070305295 0.09625005 12767389
0.70566297 -0.073610164 0.093845487 12106130
0.71660793 -0.074304357 0.094704673 11380601
0.68874753 -0.062687665 0.094802961 8952681
0.69722694 -0.067210704 0.096133061 12898746
0.70217556 -0.065351032 0.099103987 16449506
0.68449485 -0.055795472 0.095015146 7502922
0.69327509 -0.055611726 0.090986356 7370817
0.67953575 -0.044285126 0.095352784 5658915
0.68732339 -0.044002056 0.094843812 5723429
0.68427575 -0.031704359 0.096931286 5328668
0.68626988 -0.025823306 0.093285941 5197598
0.69505984 -0.021609303 0.098221317 5327381
0.68764836 -0.013289067 0.095037654 4802328
0.69741261 -0.014599447 0.095224947 4998928
0.70497525 -0.010138765 0.094423458 5393181
0.69496846 -0.004466414 0.093723163 4534287
0.70145887 -0.0045498069 0.093652993 4274203
0.72313744 -0.083132207 0.10081832 11576222
0.71588176 -0.074253328 0.10182106 10457451
0.72569829 -0.074520953 0.1054045 10785915
0.6920445 -0.064661011 0.10005569 13887464
0.70163065 -0.064511918 0.10642837 12303758
0.72025084 -0.068293177 0.10740729 12501889
0.686818 -0.056054316 0.10173278 8359008
0.69448644 -0.054654956 0.1062966 9739638
0.70004779 -0.059753247 0.10184786 9412230
0.68293601 -0.044777639 0.10323596 5790769
0.69526744 -0.043534551 0.10761522 5330210
0.68445385 -0.033560432 0.1034722 4935185
0.69536388 -0.030506618 0.10459323 5131037
0.68547791 -0.022359092 0.10382317 5196062
0.69545555 -0.023759514 0.1060518 5393177
0.70709717 -0.025173005 0.10973743 5392672
0.6952613 -0.014992161 0.1041297 4801811
0.70619118 -0.014882073 0.10512485 5326880
0.69915181 -0.0048701344 0.1015451 5191698
0.70238817 -0.0079528848 0.10653789 5195293
0.71660757 -0.0095658451 0.10396841 5456674
0.68914562 -0.053722452 0.11008632 7966306
0.69534653 -0.053260207 0.11627024 10070148
0.70405811 -0.059772186 0.11007586 13355941
0.68510836 -0.045278203 0.11141393 5855025
0.69403654 -0.041931763 0.11707155 5395236
0.68910068 -0.034006078 0.11110525 4736531
0.69872475 -0.034841504 0.11605076 5196576
0.69774526 -0.025534622 0.11254768 5261084
0.70738798 -0.024813311 0.114941 4470563
0.71072757 -0.024782216 0.11517726 5786409
0.70013744 -0.015887555 0.11056206 5130277
0.70900416 -0.0080236085 0.11097673 5128230
0.69540769 -0.052415788 0.12434127 11513501
0.6895752 -0.045939416 0.12199502 6581055
0.69823229 -0.042847425 0.12706614 6712908
0.70318538 -0.045153692 0.12370214 7567188
0.69170839 -0.037498217 0.12196824 5131299
0.71427566 -0.035637833 0.1248541 4801571
0.71622998 -0.029018063 0.12622982 5062958
0.72106993 -0.027704487 0.12262291 4929573
