# .PCD v0.7 - Point Cloud Data file format
VERSION 0.7
FIELDS x y z rgb
SIZE 4 4 4 4
TYPE F F F U
COUNT 1 1 1 1
WIDTH 160
HEIGHT 1
VIEWPOINT 0 0 0 1 0 0 0
POINTS 160
DATA ascii
0.72513914 -0.12437829 0.015770957 13946331
0.67479807 -0.064927921 0.015262142 11248553
0.68285596 -0.066197634 0.015093088 12561332
0.70456141 -0.065120846 0.016464962 4077090
0.70673597 -0.057973113 0.016882066 3682589
0.71705258 -0.04246958 0.01500753 6508355
0.70551002 -0.10186679 0.024619952 9543557
0.71650732 -0.10720103 0.025512055 14147288
0.69758594 -0.090582542 0.028264403 7504727
0.70763099 -0.093578815 0.022744834 7569233
0.71071005 -0.099817634 0.020644635 8227686
0.70459926 -0.088363402 0.02347561 8227170
0.67520201 -0.075196542 0.024459101 14669504
0.68340254 -0.074211225 0.027427115 8287827
0.67047918 -0.069640286 0.02189979 6109746
0.69955832 -0.064369246 0.026744433 5593658
0.70329159 -0.06421531 0.026864447 5461555
0.70722562 -0.056096569 0.024744712 5132074
0.71388167 -0.051311031 0.022207454 5197101
0.7081008 -0.047814675 0.027955711 4737311
0.71505648 -0.044244319 0.024203341 5853490
0.70525211 -0.10317672 0.036456615 8952177
0.71288067 -0.10543901 0.035611987 12699834
0.69881392 -0.096789666 0.034669034 8425569
0.70544976 -0.09305042 0.034398265 9347184
0.67567909 -0.083677568 0.037809741 7703641
0.68386608 -0.082658425 0.030436434 7572053
0.70627391 -0.089000545 0.036856487 8293467
0.67549229 -0.074874826 0.035560336 5198899
0.6809119 -0.074229658 0.033174939 4147224
0.69515705 -0.065526187 0.034756191 5068076
0.7013675 -0.06831222 0.035594255 4936483
0.69819975 -0.058436114 0.035144851 4935204
0.70592642 -0.055025246 0.034962099 5263654
0.71452385 -0.050219968 0.034645036 5526834
0.71743363 -0.044156563 0.035051033 5327137
0.72303551 -0.041480303 0.035434805 6702895
0.71413517 -0.11015035 0.04199037 13946835
0.71275067 -0.10361347 0.044811454 13291439
0.7231425 -0.10502214 0.04792954 12961197
0.69528842 -0.091304697 0.04075399 8360790
0.7068978 -0.094875269 0.045295749 12439471
0.71286857 -0.09278246 0.046573699 11586483
0.67375797 -0.084142491 0.049263027 7772001
0.67592603 -0.075755529 0.04825611 3688473
0.68392754 -0.076897882 0.043757439 5070640
0.69491184 -0.065526016 0.043832012 4540697
0.70443249 -0.067741394 0.046180815 4279070
0.70766503 -0.054112803 0.046258084 4803100
0.71464789 -0.055056788 0.04577582 5195809
0.71165776 -0.047547501 0.044209056 5064489
0.72289354 -0.046321321 0.044619273 5851946
0.70438385 -0.091802835 0.051186826 9150071
0.67958468 -0.084115453 0.05707331 7244627
0.68392688 -0.084761128 0.057003535 7046488
0.67777723 -0.076075554 0.057458337 3755542
0.68196154 -0.07481578 0.057136707 3951903
0.68417645 -0.065685876 0.057246875 5396267
0.69800997 -0.065830074 0.05107981 3883031
0.701581 -0.06601198 0.050334901 4409120
0.69849777 -0.053993799 0.057762817 5197103
0.70058322 -0.055263638 0.056224037 5197353
0.69678485 -0.04710732 0.056774125 3088133
0.70747912 -0.11639708 0.06496124 13942731
0.69744688 -0.10283818 0.065014631 11712418
0.70172751 -0.10756723 0.065590456 13485247
0.68833864 -0.094197571 0.066036105 4210988
0.69601256 -0.095568493 0.06364125 2103821
0.67571527 -0.084977433 0.063890412 6385469
0.68693441 -0.086331844 0.066318087 8030045
0.67702502 -0.075412326 0.065732643 4149282
0.67635584 -0.067670554 0.065433793 4409894
0.68114781 -0.069627315 0.060370326 5132847
0.68793845 -0.059197307 0.067028783 5656877
0.69403094 -0.054508816 0.065223686 4998443
0.69953787 -0.045579743 0.065684013 6046520
0.70187223 -0.049114186 0.065726206 4470305
0.69839638 -0.11089037 0.078432128 12499364
0.70655572 -0.11641965 0.070555657 14008778
0.68785203 -0.10051607 0.075547621 9805691
0.69801134 -0.10248014 0.074676335 10596219
0.70406175 -0.10750952 0.071910039 12896429
0.68382442 -0.091631725 0.076776594 10001267
0.69240618 -0.094341271 0.074762747 9410155
0.67822301 -0.086484298 0.072943576 7107408
0.68177122 -0.08126431 0.078458309 6914400
0.67481983 -0.075435966 0.075970769 3952927
0.67449015 -0.067457408 0.074910231 3687446
0.68347001 -0.062521741 0.073902354 4079384
0.68297648 -0.057884153 0.073482186 4930860
0.69368398 -0.054317702 0.078151092 5458471
0.69584334 -0.044498239 0.073735103 8285262
0.70472854 -0.04460001 0.076013774 6181937
0.70465994 -0.11197852 0.085270643 13092522
0.69647574 -0.10370357 0.082694501 12438694
0.70501667 -0.10587695 0.083896644 13225901
0.68328565 -0.090244696 0.088786811 11447680
0.69625688 -0.095018111 0.08561375 10267014
0.67365277 -0.08718098 0.081481665 3877658
0.68531168 -0.082511008 0.086076304 8548976
0.69126523 -0.086197302 0.08745417 10723462
0.67104429 -0.079157963 0.082902774 5335613
0.68312836 -0.075489432 0.08615277 3946787
0.67621481 -0.064844429 0.082799435 3815707
0.68543386 -0.066550493 0.086497426 4733988
0.69648069 -0.061126322 0.087972134 5326374
0.68753421 -0.055747036 0.080577165 5261096
0.69530988 -0.053881217 0.087464236 5196065
0.7057696 -0.050513491 0.087070458 5460002
0.6981442 -0.045556083 0.084273815 5459236
0.70489925 -0.043135054 0.08403226 6311974
0.71654046 -0.042384781 0.085779548 5917219
0.69512045 -0.10220276 0.09034276 12637375
0.70682615 -0.1050567 0.093031272 13160864
0.71429884 -0.10631311 0.09492889 13486513
0.69156969 -0.093545385 0.094275884 9148778
0.70588058 -0.096275903 0.095422901 12371110
0.71050978 -0.097798228 0.09736295 15594724
0.68565488 -0.082403801 0.095299676 9343342
0.69908118 -0.080480486 0.094580516 9013854
0.70255589 -0.086807378 0.096699581 9015391
0.67792976 -0.074953601 0.091483094 5327157
0.69445765 -0.073903397 0.094252549 7696203
0.70314634 -0.07510151 0.098474607 7500353
0.68688685 -0.063889988 0.092014901 5916716
0.69480008 -0.069746047 0.094102293 6973244
0.70317471 -0.064210512 0.09750437 5790249
0.69430876 -0.055845484 0.0940926 4999450
0.70292568 -0.055734303 0.096866928 5262623
0.71091568 -0.053961083 0.097075209 5459497
0.70487058 -0.046584085 0.093711048 5328155
0.71353072 -0.046357829 0.096508473 5390878
0.70303822 -0.10178801 0.10060292 13028786
0.71136004 -0.10365717 0.10106524 13089201
0.69771987 -0.093279436 0.10253781 9015913
0.70708174 -0.092379399 0.10413989 7436628
0.7122097 -0.096878044 0.10471569 12502949
0.6991592 -0.083512813 0.10395563 7040061
0.70655042 -0.086858816 0.10427786 6511414
0.71191728 -0.083227493 0.10627769 6052910
0.69439149 -0.07540758 0.10205346 6712126
0.70461047 -0.075380914 0.10529205 5658149
0.71228456 -0.073542245 0.10401875 5987124
0.70414299 -0.065741874 0.10448934 5789993
0.71191317 -0.062625468 0.10468943 5921837
0.70612788 -0.057630081 0.10444155 5197603
0.71281517 -0.054327615 0.10484777 5329443
0.70683104 -0.10284054 0.11081949 12761260
0.70493329 -0.094535388 0.11190705 9084542
0.71366966 -0.095825016 0.11465034 11252630
0.70721751 -0.086363643 0.11217909 6317627
0.71340436 -0.083586901 0.1144393 6118710
0.70676678 -0.072931632 0.11328977 6580535
0.71811843 -0.074234359 0.11148822 7698261
0.70633763 -0.064819925 0.11405155 5857845
0.71547645 -0.065198161 0.11268824 7503442
0.71210909 -0.057415538 0.1130231 5657132
0.72009408 -0.055097874 0.11229827 6246707
0.71357548 -0.07383585 0.12009336 11181973
0.71435106 -0.060285974 0.12103093 6182986
