# .PCD v0.7 - Point Cloud Data file format
VERSION 0.7
FIELDS x y z rgb
SIZE 4 4 4 4
TYPE F F F U
COUNT 1 1 1 1
WIDTH 110
HEIGHT 1
VIEWPOINT 0 0 0 1 0 0 0
POINTS 110
DATA ascii
0.76681304 -0.035268359 0.037267961 8096363
0.75531918 -0.02277595 0.037892707 7965051
0.76356709 -0.028524641 0.033868313 5658162
0.7524417 -0.014915085 0.034610741 7041879
0.74433666 -0.0043638814 0.034929384 8097111
0.74608874 0.0063251127 0.03505614 5857583
0.74801564 0.013464264 0.035149902 5000740
0.7515437 0.016138362 0.03586746 5332271
0.75716424 0.024109455 0.036237586 5526831
0.76221991 0.028156675 0.033868968 5524785
0.76172936 -0.030513864 0.044365562 9346704
0.77567828 -0.03646408 0.04638838 13225935
0.75647533 -0.025030669 0.046013605 11317436
0.74818671 -0.013090551 0.04522194 9276304
0.75116134 -0.018039936 0.044736933 9672865
0.74720228 -0.0046947026 0.045727015 6779219
0.74807358 0.0055370783 0.045508653 5792046
0.74790549 0.01597634 0.044941179 5857588
0.75016546 0.01269045 0.045686096 6186802
0.7541728 0.02305303 0.04453576 5856308
0.76027417 0.028058887 0.043425158 5922092
0.76329947 -0.033987369 0.055365413 12566962
0.75587016 -0.024525257 0.056552961 13949928
0.76105034 -0.028244976 0.055826828 12108984
0.75228906 -0.016871415 0.057000414 10330028
0.74658716 -0.0046166009 0.056204453 7569236
0.74683845 0.0055769049 0.056114458 6055990
0.75128484 0.01456525 0.055467196 5593640
0.75685239 0.021970771 0.053260848 5987627
0.76040602 0.025463331 0.055641793 5591589
0.76668799 -0.030681182 0.064481944 9873282
0.75552833 -0.022460362 0.067343153 11254945
0.7643016 -0.025109198 0.064319909 14804169
0.74964368 -0.012817612 0.068482511 7240032
0.75544572 -0.016327286 0.064392768 9937050
0.74835896 -0.004130261 0.06844379 6121015
0.75052935 -0.0046950253 0.06372501 7371596
0.74999791 0.0040618936 0.0637514 5989161
0.7503975 0.0076081622 0.068225682 4870176
0.75265473 0.014730529 0.065617725 5396006
0.75920826 0.02220582 0.064866021 5987628
0.75469136 -0.030552775 0.077826217 11974314
0.74730873 -0.023297239 0.07830812 8163420
0.74418557 -0.014676225 0.075414836 7307602
0.75111997 -0.018585833 0.071413018 6649169
0.73971182 -0.0043814797 0.077492759 6451772
0.74170244 -0.0048761098 0.07720004 6319420
0.74378353 0.0063018608 0.076083802 5463088
0.74628544 0.015776865 0.076478101 5067814
0.7486186 0.021559723 0.078719735 7171134
0.75416511 0.023260519 0.074092992 7498310
0.74943066 -0.030115692 0.086189799 10005888
0.75501633 -0.03434068 0.088713199 10071164
0.7462967 -0.024667688 0.085766695 6712139
0.73869061 -0.013230402 0.086443841 6384442
0.74144763 -0.018098967 0.084202886 7174218
0.73765016 -0.0046499097 0.086463854 6121526
0.73775733 0.0068223244 0.086341113 6450231
0.74170542 0.015647383 0.085827142 6055476
0.74787366 0.023279088 0.085168041 6251059
0.75487697 0.028471002 0.085389607 6447922
0.75789261 0.033969272 0.088979222 7499327
0.76115721 0.034890875 0.088127486 7300931
0.75469995 -0.03472738 0.097184017 11188626
0.74460721 -0.024464721 0.096811213 7636072
0.73782218 -0.012851706 0.097734861 6714432
0.74002272 -0.013388754 0.095203899 6779448
0.73736441 -0.0040901895 0.096020937 6186542
0.74032146 -0.0075889537 0.098017618 6515514
0.73823869 0.0069308388 0.096376702 5989419
0.73951977 0.015289465 0.09203437 6252334
0.74210799 0.015763007 0.09741506 5791786
0.74811554 0.023371488 0.095398813 5856553
0.7538541 0.028480064 0.097112127 5724713
0.75656998 0.03388593 0.095140979 6577457
0.75774086 -0.032026596 0.10473076 12765856
0.74797994 -0.021199295 0.10646422 9282164
0.75382054 -0.027273383 0.10598436 11188875
0.74412322 -0.013856992 0.10569443 7636045
0.75068295 -0.018814035 0.10847662 9084261
0.74321765 -0.0042517693 0.10617092 6581559
0.74395382 0.0073104352 0.10605069 6054699
0.74578583 0.016059633 0.10578062 5791271
0.75363362 0.025303993 0.1052755 6053159
0.75924712 0.034135863 0.10070962 5852441
0.75691134 -0.03632205 0.1138519 12694965
0.76037335 -0.030422352 0.11334245 12040871
0.75566155 -0.02393447 0.11238694 10331256
0.76841187 -0.02259272 0.11532485 10529149
0.77250177 -0.024330325 0.11782782 11315857
0.75293684 -0.015410658 0.11266789 8688220
0.7642206 -0.013724703 0.11825693 9214064
0.74814713 -0.0037265634 0.11205131 7042121
0.75589341 -0.0035741797 0.11750114 7435608
0.74743062 0.0078298207 0.1118996 5988659
0.7517451 0.0078156739 0.11730346 6185787
0.74965155 0.016655453 0.11181486 5922599
0.75320828 0.016624667 0.11716568 5856811
0.75696379 0.022692043 0.11538044 5657636
0.76817399 -0.023650935 0.1244256 11380631
0.77319306 -0.024245307 0.12381411 12237490
0.76921976 -0.015003549 0.1257035 7699833
0.77110875 -0.015225586 0.12994367 10854825
0.75371218 -0.0004757205 0.1237467 12109511
0.76478881 -0.0043591973 0.12435541 9871489
0.75440013 0.0075333901 0.12540303 6250580
0.75664312 0.015065554 0.12600589 5857583
0.76859355 -0.0060381531 0.13012487 6515246
0.77111149 -0.0055792686 0.1361964 8878193
0.75572634 0.010747854 0.13109937 6843978
