# .PCD v0.7 - Point Cloud Data file format
VERSION 0.7
FIELDS x y z rgb
SIZE 4 4 4 4
TYPE F F F U
COUNT 1 1 1 1
WIDTH 132
HEIGHT 1
VIEWPOINT 0 0 0 1 0 0 0
POINTS 132
DATA ascii
0.71983767 -0.096408069 0.0020991117 13552095
0.72998953 -0.090996236 0.0053197592 10395556
0.73626679 -0.096829839 0.0058762822 13027788
0.70682448 -0.086541615 0.00034837425 13221338
0.71706581 -0.084401354 0.0042813271 10658732
0.72370654 -0.087349683 0.0055039227 12105917
0.70632964 -0.074848078 0.001102075 12629202
0.71448594 -0.077065907 0.0049493634 10461339
0.70079505 -0.060203217 0.0035304725 12892368
0.71360844 -0.064091414 0.0055050105 6248273
0.71504432 -0.054993108 0.0049429983 7695965
0.72118962 -0.052678347 0.004157953 5193514
0.70770979 -0.045884751 0.0021817535 10260375
0.71856874 -0.048646353 0.0058124438 4669223
0.72537661 -0.044793058 0.0053643137 4536364
0.70960468 -0.034309458 0.0022075623 8416109
0.72791314 -0.036574133 0.0031640604 6180419
0.70399946 -0.021625228 0.00083209574 10258582
0.71415216 -0.025536878 0.0012873113 8349032
0.70764089 -0.01704026 0.0036930144 8413284
0.76572591 -0.010062566 0.0059550852 8743796
0.77802116 -0.019321254 0.0086114258 12693966
0.78241444 -0.012919575 0.0077427179 13156065
0.72362256 -0.091356389 0.01731053 10661762
0.74447286 -0.098735094 0.013748631 14213584
0.71825522 -0.08579807 0.016678764 10070395
0.70906872 -0.0756905 0.016788676 7831895
0.71453768 -0.075639591 0.017335981 7699801
0.71192276 -0.064310417 0.015814606 6120508
0.71390724 -0.055353358 0.01645897 5594427
0.71661675 -0.047193516 0.014289141 4672560
0.70277977 -0.036418006 0.016170517 4209947
0.79796219 -0.012757778 0.010218188 13286110
0.7263537 -0.091723904 0.025642872 11715758
0.71816188 -0.085942678 0.026076019 10465932
0.72159088 -0.088327602 0.024982497 11122837
0.71487063 -0.076009922 0.026826171 7304781
0.71316427 -0.065111697 0.025769318 6251575
0.71205807 -0.054176066 0.0266192 5988914
0.71401042 -0.046388961 0.026518805 4936487
0.70274842 -0.036019433 0.024391644 5068594
0.70358467 -0.027222872 0.024396868 6507830
0.7286498 -0.09265884 0.034615912 13024696
0.72336692 -0.085705191 0.035054903 12372662
0.71728969 -0.07697323 0.03382954 8556899
0.72011918 -0.077144995 0.036194652 7833175
0.71330309 -0.064586908 0.034927361 6186297
0.71286166 -0.055949293 0.035073049 5396262
0.71678537 -0.047157984 0.036583666 4212248
0.7029562 -0.036595143 0.035208099 4807470
0.70473093 -0.028062621 0.035891205 5454379
0.73069125 -0.098343223 0.048267677 13481146
0.72410411 -0.08570797 0.040618941 14016199
0.7162866 -0.077412978 0.043226734 6647876
0.72140855 -0.077291377 0.04341843 7306581
0.70012724 -0.061982434 0.048512034 5793333
0.71402597 -0.065950364 0.043432679 5989173
0.7053296 -0.056620773 0.04822626 6120255
0.71524727 -0.053949565 0.043689758 4672549
0.70366108 -0.048317879 0.048514638 4871470
0.71756113 -0.048145369 0.041569497 3752470
0.70185208 -0.035550874 0.044901527 4147748
0.70142519 -0.029098313 0.04905992 4339732
0.71785706 -0.091804489 0.05496325 12826550
0.72356391 -0.098017156 0.058197208 13415868
0.70830077 -0.084626392 0.058577336 10002545
0.71469104 -0.086371325 0.054810062 10922386
0.70662373 -0.074758761 0.055473238 7503956
0.71154898 -0.079948336 0.056141078 8752487
0.70330685 -0.066221945 0.056202564 7568460
0.70293659 -0.055427305 0.055232055 3684385
0.70360136 -0.043855242 0.053201392 5197365
0.70143282 -0.03739579 0.054884538 3292438
0.70408684 -0.029385122 0.05503466 3548934
0.7157917 -0.09233208 0.066562489 12304805
0.72134304 -0.098037735 0.067218021 13220282
0.70793653 -0.082364693 0.064024419 9017195
0.71200192 -0.085969865 0.064672589 9938556
0.70457315 -0.075886808 0.066031277 7634256
0.70169121 -0.064510025 0.064047582 6316341
0.70026666 -0.055230062 0.064590253 5724972
0.70093435 -0.045781769 0.062957183 7891549
0.7004323 -0.03445597 0.062766351 4016926
0.70422852 -0.025571313 0.062447242 4802077
0.71787167 -0.092219099 0.073632181 13029799
0.72170663 -0.095500141 0.07353992 13156267
0.7097255 -0.082673758 0.073726833 10136719
0.71388537 -0.086790681 0.075173512 12109987
0.70739388 -0.075987369 0.07666599 8161626
0.7032944 -0.065025404 0.074174009 6185780
0.70204467 -0.055560887 0.073654629 5723941
0.70223844 -0.045097612 0.0728641 8022111
0.70577121 -0.031994626 0.075336292 3881751
0.70623922 -0.027459437 0.074535109 3748117
0.71081209 -0.02417993 0.079017684 3939084
0.72954887 -0.093593664 0.084074095 12958891
0.7350648 -0.093576238 0.082917035 13222073
0.71535271 -0.083184183 0.083135113 10990741
0.72175801 -0.086206749 0.084231339 12765602
0.73077679 -0.088047639 0.0899259 12959914
0.71310437 -0.076641075 0.084554538 9215602
0.70811248 -0.066771477 0.082797974 6778430
0.71426982 -0.066992879 0.08855252 6448438
0.70665169 -0.055934694 0.081468649 5790766
0.71281433 -0.056600403 0.087877393 5723943
0.70770282 -0.046676774 0.081626758 6839604
0.71434063 -0.046134118 0.087257728 5722663
0.72379196 -0.043655943 0.089629993 6051375
0.70640802 -0.038624972 0.081281565 6707019
0.71489698 -0.035131805 0.084785268 7035715
0.72708768 -0.033040948 0.086374283 6048817
0.72121078 -0.08166647 0.094088443 12304811
0.71605921 -0.07649748 0.093700364 8687717
0.7205084 -0.0759767 0.099407867 8557419
0.71560502 -0.066241167 0.096172735 5724199
0.71808797 -0.055974912 0.093994163 5525792
0.72291875 -0.057163443 0.098772228 5460259
0.71946549 -0.049364015 0.092199847 6050853
0.72738981 -0.049640808 0.096887603 5197084
0.73388529 -0.043984085 0.098522216 5525026
0.7308166 -0.039158188 0.094425835 5787429
0.71704555 -0.074641131 0.102918 9214066
0.72223759 -0.076486059 0.10334925 10071192
0.73306179 -0.070998676 0.10687376 8618871
0.71809739 -0.068453982 0.10361622 6318644
0.72257107 -0.067650773 0.1022708 6449470
0.74136645 -0.060147889 0.10679003 10590882
0.72518408 -0.058814898 0.10366683 5592621
0.73534083 -0.053979229 0.10583194 7566167
0.74244887 -0.051590346 0.1098773 9934218
0.73412919 -0.046912272 0.10468485 6053427
0.7405926 -0.045459464 0.10722211 5656124
