# .PCD v0.7 - Point Cloud Data file format
VERSION 0.7
FIELDS x y z rgb
SIZE 4 4 4 4
TYPE F F F U
COUNT 1 1 1 1
WIDTH 203
HEIGHT 1
VIEWPOINT 0 0 0 1 0 0 0
POINTS 203
DATA ascii
0.72533643 -0.060956512 0.013528764 11123080
0.73475027 -0.064424716 0.011430633 12767916
0.74600363 -0.06301143 0.013493925 10070412
0.75793564 -0.069202632 0.011400685 15263216
0.71736479 -0.05306448 0.015068367 8755307
0.72359079 -0.052643426 0.014749929 8228452
0.73840094 -0.054296765 0.01787176 11518359
0.70947158 -0.043335959 0.015724733 7699796
0.71777248 -0.044766873 0.017694479 7832410
0.732777 -0.044132449 0.014741618 7568983
0.70983493 -0.031939812 0.019224837 6121015
0.73076797 -0.034136474 0.013947907 6712901
0.71437168 -0.02633008 0.017813958 5857334
0.72027439 -0.021055277 0.016455092 5264947
0.73346168 -0.022739552 0.015311249 5462323
0.71758264 -0.012315789 0.019177914 4936236
0.72373009 -0.013478324 0.017214075 5133612
0.73746693 -0.014015665 0.014931947 4936234
0.72461987 -0.0064715729 0.014794546 4735530
0.73015845 -0.0018909562 0.016854275 6773570
0.74192232 -0.0024841127 0.018961094 5130019
0.71663034 0.010254787 0.018179998 4865332
0.72799706 0.01499007 0.014998508 8217424
0.70871234 0.020548612 0.013304889 8283746
0.71354789 0.024986399 0.018084465 7558488
0.72729605 0.025273863 0.016393121 7887192
0.72824484 -0.061418898 0.021906227 13621463
0.73415595 -0.060478628 0.028863732 13747377
0.75122726 -0.063500158 0.027329564 13549518
0.71806914 -0.05276525 0.027975723 10334093
0.72446406 -0.052828237 0.027763095 11453345
0.74547899 -0.055647671 0.027418558 12964026
0.71666789 -0.044629455 0.027206244 7700307
0.73815572 -0.046029449 0.029717229 8688744
0.70795697 -0.039742108 0.020315021 6844489
0.71626729 -0.024901733 0.027711535 5921842
0.72242761 -0.012810593 0.02759875 5462060
0.73528832 -0.017458441 0.028155722 5593901
0.72542083 -0.0026542488 0.028696796 4210720
0.74222296 -0.0038733466 0.029524408 4277015
0.70904118 0.0025962712 0.021255165 6907997
0.71385878 0.0074284328 0.02455706 3752476
0.73093295 0.0082763582 0.021009997 6580818
0.71219033 0.017276719 0.021181405 7821657
0.72822517 -0.061858505 0.030997604 13226956
0.73251063 -0.062851369 0.037005477 13750204
0.72345746 -0.052636683 0.037056692 9412211
0.74355149 -0.054006077 0.039293766 10925461
0.71618575 -0.041667797 0.037965536 6317630
0.72044438 -0.040861931 0.035637781 6843971
0.7341314 -0.040336419 0.030463755 6976586
0.74047869 -0.044441581 0.039986655 7898453
0.71223611 -0.034687441 0.033360373 5790255
0.73306382 -0.031831387 0.030878678 5725483
0.71291119 -0.024105143 0.03374204 5725229
0.72156799 -0.025570314 0.037210949 5264677
0.73497915 -0.023267405 0.030882612 5856558
0.71770942 -0.012099181 0.030177265 5263917
0.72366142 -0.012698752 0.038513184 4540442
0.73875564 -0.013667601 0.03162045 5330215
0.73265696 -0.0021154303 0.035826407 4801308
0.74769926 -0.005912466 0.038374402 3683091
0.70925808 0.0045760758 0.033182979 6450253
0.71539962 0.0078366427 0.038546376 4213806
0.73053378 0.006836527 0.031500816 5397052
0.74834967 0.00014883582 0.032670967 4339996
0.75063878 3.1703152e-05 0.038186699 4206617
0.72616905 -0.053179238 0.044803377 10727056
0.71807611 -0.041526765 0.046499718 6253114
0.72345591 -0.042361632 0.04379274 6252861
0.73630488 -0.04076853 0.044424377 6251580
0.71697199 -0.031683788 0.045644738 5528369
0.73409945 -0.032196339 0.042111464 5397035
0.71576858 -0.023657754 0.042940192 4935459
0.72213686 -0.02569258 0.044120789 5134376
0.73502535 -0.023677368 0.042271376 5264932
0.72477436 -0.014781017 0.045682654 4738859
0.74154878 -0.013926874 0.040825009 4475684
0.72407061 -0.0047637229 0.047157798 8418899
0.73175228 -0.0038648234 0.041683368 3286287
0.70973992 0.00086326711 0.044643521 10463647
0.71041888 0.0066183759 0.044777423 4080663
0.72816634 0.0060717324 0.045021974 6451533
0.71915472 -0.06307289 0.059759542 13088947
0.72426271 -0.064761162 0.056602612 12891834
0.74420643 -0.066873521 0.056956835 13284543
0.71625018 -0.053269077 0.056672569 9411699
0.73437428 -0.053776279 0.054136161 10725514
0.71251345 -0.04326687 0.054155502 7108174
0.72896975 -0.043865658 0.053629592 7831636
0.70578319 -0.035632029 0.055304952 6648131
0.71177006 -0.033007607 0.05450955 6911046
0.72331846 -0.031847935 0.05555699 6778945
0.70700634 -0.022579962 0.05732977 6317887
0.71001089 -0.022081062 0.052935258 6846011
0.72354877 -0.02438888 0.054844312 6777920
0.70689595 -0.015564272 0.054825265 6514499
0.71290696 -0.01242728 0.055716932 3816472
0.72335947 -0.017009025 0.056030001 6383415
0.70812196 -0.003838913 0.055446938 8221278
0.71367341 -0.0024843509 0.056159604 7233874
0.72838372 -0.0046546962 0.054940186 5854007
0.70978665 0.0058811614 0.053645581 3622154
0.71488559 0.0069589708 0.054606561 3819038
0.7296738 0.0056636184 0.056071781 3486996
0.73213947 0.0097556571 0.052186579 4079641
0.7119453 0.011752429 0.053460523 10714995
0.72455913 -0.064816982 0.066031367 12828586
0.74018902 -0.06417498 0.06873963 14012853
0.71402192 -0.054162454 0.064582124 9149290
0.73364162 -0.055478096 0.065393388 11189903
0.70572078 -0.045178443 0.065374896 7107399
0.71297741 -0.045520902 0.06744431 7240265
0.72623265 -0.043298472 0.06600143 6910275
0.7054702 -0.031291578 0.065712407 6251313
0.72208923 -0.033128228 0.065794028 6250798
0.70664591 -0.022954892 0.065759927 5988401
0.72151679 -0.024841283 0.066115625 5987881
0.70494878 -0.015071923 0.065160245 5591598
0.71020937 -0.01414407 0.066654697 5592612
0.72496033 -0.016412489 0.066062815 5724455
0.70835954 -0.0025079558 0.063158363 5458491
0.71226144 -0.0031119087 0.066806585 6312251
0.72662228 -0.0052173324 0.066265121 7036480
0.7119056 0.0066400077 0.064587608 4410402
0.72652733 0.0059210025 0.066631496 3686683
0.71501207 0.010801786 0.066990457 3687957
0.73021936 0.014569574 0.066559538 4010256
0.72513026 -0.063801132 0.075492315 14078904
0.71601272 -0.053745218 0.074512616 10728340
0.73492748 -0.053026527 0.077917948 15006206
0.70481187 -0.042816438 0.07328935 6843970
0.71369231 -0.045642421 0.075587586 7570253
0.72729635 -0.043578226 0.075119786 7635023
0.70269531 -0.032542914 0.073272958 5921836
0.71054864 -0.030689824 0.077212721 5790759
0.72344011 -0.033383749 0.073926665 6119214
0.70346981 -0.024130132 0.073544607 5593380
0.71139967 -0.022493336 0.077351213 5724451
0.72538286 -0.025040228 0.074034795 5527841
0.70498908 -0.015660066 0.073671192 5723433
0.71366906 -0.015102123 0.076564938 5526563
0.72732514 -0.016647212 0.074144542 5592348
0.70665574 -0.0033442297 0.073009573 5261356
0.71423399 -0.0031687832 0.074949935 5786161
0.72823685 -0.0054813931 0.074428678 6312494
0.7138198 0.0071207667 0.075312063 3422229
0.72864521 0.0056868689 0.074754454 3553051
0.73341763 0.0057675056 0.079927631 4667950
0.72869444 -0.06429439 0.08113949 13423779
0.71447545 -0.054518435 0.080353856 12573379
0.72427714 -0.054729924 0.086266622 12829849
0.74488437 -0.057037182 0.080799975 13620383
0.75160152 -0.053549118 0.087986596 12830628
0.70787871 -0.043304015 0.08212325 7240268
0.71501541 -0.044916034 0.086949736 8820330
0.73199618 -0.045660142 0.082066581 9280885
0.7073642 -0.033097461 0.083669975 5987627
0.71612424 -0.034818888 0.085290447 6647095
0.7274496 -0.034498978 0.080913633 6449466
0.73093754 -0.030865571 0.084457383 5790510
0.70764238 -0.024692938 0.084037289 5527076
0.71974254 -0.02242141 0.088279583 5395232
0.73077339 -0.025202759 0.081893571 5593124
0.7090795 -0.017091911 0.083212018 5394723
0.71523452 -0.012365786 0.08323054 5328670
0.72302204 -0.014918704 0.087537758 5591584
0.73171222 -0.016811034 0.082101323 5527071
0.74114388 -0.013973425 0.089897044 5459995
0.70977122 -0.0075737685 0.081668317 5262113
0.71583593 -0.0034402811 0.082470909 5917739
0.72706604 -0.0063433982 0.087744638 5525550
0.73439294 -0.0055139652 0.082279518 5393186
0.71547967 0.0058329506 0.083181113 4601131
0.72477382 -0.050075289 0.096085489 6102301
0.71339667 -0.043857176 0.092423946 9409906
0.72292191 -0.041840062 0.098921336 10528901
0.73506844 -0.044085477 0.091125429 10002568
0.71587813 -0.032182347 0.092426077 5461284
0.7206912 -0.03084485 0.099048041 5658665
0.73333353 -0.033893943 0.092478789 5922346
0.71683031 -0.025047552 0.093715839 5066267
0.72323853 -0.022460241 0.096532501 5132067
0.73579532 -0.025476994 0.092618346 5329179
0.71918935 -0.016265363 0.090915352 5393691
0.73602408 -0.015536343 0.093828559 5525284
0.74074394 -0.013396977 0.09712337 5328671
0.75611043 -0.015664788 0.098398417 5394208
0.73438591 -0.0072300313 0.094556548 6181418
0.75552791 -0.0078909313 0.094901174 5981459
0.71694344 -0.045275182 0.10116318 10067590
0.72089887 -0.042718057 0.10630922 9411712
0.73780948 -0.042497102 0.10023226 14741197
0.71429902 -0.034105152 0.10211934 5594152
0.72017103 -0.034276318 0.10682695 6251838
0.7374841 -0.035107069 0.10231912 6515017
0.71960771 -0.02548911 0.10171595 5657625
0.73457074 -0.025253512 0.1051383 6183740
0.74364299 -0.025418773 0.10500222 6186560
0.76128727 -0.025365708 0.10540126 7040844
0.73687387 -0.01652972 0.105222 5327403
0.7439903 -0.016208449 0.10277504 5329448
0.76123822 -0.01960903 0.10559063 5856568
