# .PCD v0.7 - Point Cloud Data file format
VERSION 0.7
FIELDS x y z rgb
SIZE 4 4 4 4
TYPE F F F U
COUNT 1 1 1 1
WIDTH 93
HEIGHT 1
VIEWPOINT 0 0 0 1 0 0 0
POINTS 93
DATA ascii
0.75539762 -0.048674501 0.028133385 13158873
0.75709635 -0.037070923 0.0279174 12301499
0.77123439 -0.025150761 0.026335947 11642533
0.76696593 -0.013500772 0.026774485 12103859
0.75866073 -0.0050992942 0.027664162 11577258
0.75732231 0.0035222815 0.027788982 11050398
0.75697947 0.012193264 0.027804464 10918289
0.76508558 -0.045783907 0.035915472 11452833
0.76325083 -0.037006184 0.036071364 6582599
0.76470256 -0.025289271 0.035878349 4276780
0.7650674 -0.014539528 0.034835383 4145203
0.76303387 -0.0068380404 0.036982156 5461303
0.76573491 0.00501059 0.036696449 5723175
0.77383602 0.013386092 0.037857361 7431754
0.77391732 -0.048745364 0.046947435 9214843
0.76565439 -0.03696803 0.047592118 8359022
0.75988042 -0.025383107 0.048037015 8026236
0.75903839 -0.016695015 0.048080392 7893884
0.76243567 -0.0078347204 0.047771253 7171436
0.77131581 0.0053371731 0.046012014 4737829
0.77752078 0.0136307 0.046461828 5654305
0.77704948 -0.051701996 0.055643685 13359039
0.76917475 -0.045729678 0.056185905 8951924
0.76334512 -0.036957838 0.056573227 7899736
0.76055878 -0.025359798 0.056734379 7828077
0.75871778 -0.016702216 0.056837637 7564907
0.76086962 -0.007915129 0.056655746 6973275
0.76529145 0.0010514141 0.053378299 5462840
0.77011782 0.0071985256 0.055947326 5462313
0.78021204 0.013803145 0.055206127 5587729
0.77797395 -0.051665053 0.067493342 11185824
0.77036095 -0.045704111 0.064961627 12110744
0.76563203 -0.035943285 0.064225897 6452036
0.77019447 -0.039812207 0.067887515 7441244
0.76323533 -0.025283098 0.065311998 6447940
0.76239198 -0.016572226 0.06533248 6184774
0.76379699 -0.0077841235 0.065222934 5657907
0.7654742 0.0010501045 0.062156919 5791791
0.77117914 0.0052953828 0.065715894 5657128
0.76879567 -0.057380483 0.079776511 12433848
0.76545274 -0.048561357 0.079879418 5132330
0.77054715 -0.045674834 0.073778085 11384982
0.76218355 -0.036918409 0.077053919 7109968
0.75941575 -0.025357198 0.074242577 5990203
0.75907063 -0.016682509 0.074227661 5792568
0.76122588 -0.0079028942 0.074091375 4805168
0.76605338 0.0030105223 0.077709153 5855027
0.769252 -0.057362251 0.08562538 8490118
0.76240528 -0.048518866 0.08581765 5992771
0.75482994 -0.036941424 0.088894479 6911304
0.75294709 -0.025493184 0.084593959 5792315
0.75234956 -0.016909011 0.084580138 5394996
0.75412989 -0.0082298182 0.084483325 5792306
0.75599718 0.00047328218 0.088713035 5396781
0.76261294 0.0066502327 0.088492438 5988397
0.7685023 0.012880889 0.085375071 8943449
0.7650345 -0.051412866 0.094480827 11978913
0.77016455 -0.05732578 0.097323112 12434602
0.75812823 -0.045559704 0.094606832 8229992
0.75449932 -0.036924284 0.097518682 7372363
0.74874157 -0.022721969 0.097562484 5067842
0.75064433 -0.028381631 0.097552061 6121019
0.75084794 -0.016954988 0.097500548 4537638
0.75200337 -0.0083353268 0.09744373 5660196
0.75717026 0.00052877376 0.097313918 5527590
0.76128465 0.0065474729 0.097214907 5461286
0.76868379 0.012871915 0.094138533 6117165
0.77591336 -0.054440752 0.10605064 12369305
0.76426423 -0.047488566 0.10513388 12899249
0.75678343 -0.035930149 0.10513853 8161879
0.76136017 -0.03973252 0.10896949 9742705
0.75387001 -0.025444482 0.10607362 6186293
0.75301999 -0.016876604 0.10604158 5527845
0.75643468 -0.008137417 0.10598365 5593126
0.75761825 0.00054667634 0.10305645 5461797
0.76601708 0.0048998734 0.10683034 5788971
0.77187496 0.01308057 0.1028547 5524519
0.77971762 -0.04853541 0.11486888 11316632
0.76537484 -0.036805607 0.11474615 9411171
0.76257038 -0.025231134 0.11467952 7633995
0.76021469 -0.016625565 0.11462869 6383166
0.76586014 -0.0086881388 0.11656319 5657647
0.76956481 0.0012135725 0.11459164 5657384
0.77945769 -0.045537118 0.12370373 13686213
0.77553856 -0.035716888 0.12261726 4935220
0.77455139 -0.024944881 0.12352864 5921333
0.77194464 -0.016218534 0.12344568 5724463
0.77413791 -0.0058730664 0.12343147 4539187
0.77627945 0.0015852612 0.12342647 5263905
0.78215891 -0.045516521 0.13261202 10127486
0.78131187 -0.036626901 0.13254434 8882554
0.7736339 -0.01615664 0.13223124 10132866
0.7778154 -0.0071702506 0.13230115 5788750
