# .PCD v0.7 - Point Cloud Data file format
VERSION 0.7
FIELDS x y z rgb
SIZE 4 4 4 4
TYPE F F F U
COUNT 1 1 1 1
WIDTH 137
HEIGHT 1
VIEWPOINT 0 0 0 1 0 0 0
POINTS 137
DATA ascii
0.71799612 -0.064217865 0.034240559 15198452
0.75508332 -0.063692346 0.033901453 14936301
0.70240921 -0.053815875 0.039303601 9544573
0.71657723 -0.055845723 0.033616681 9808773
0.72991556 -0.056967214 0.039939832 14016215
0.70891213 -0.043144405 0.033501968 6914125
0.71584916 -0.046037346 0.035319831 7898453
0.70784342 -0.033208862 0.0353508 6450499
0.7161535 -0.037247006 0.032363795 5460008
0.70703 -0.022313625 0.036252946 5990205
0.71202648 -0.029122103 0.035379756 6649672
0.71165717 -0.016011385 0.035792686 5726520
0.71734965 -0.0056601549 0.035201106 5327920
0.71891874 0.01804474 0.03057896 8088430
0.75397009 0.012597857 0.030022055 7628387
0.70766878 -0.053993288 0.044344775 12771023
0.72528297 -0.056856822 0.045010135 12108211
0.73053318 -0.057078045 0.045508388 13488083
0.7011342 -0.048312027 0.042408526 7832658
0.71529275 -0.045760185 0.045260385 10334587
0.70635235 -0.034252718 0.046920255 6121016
0.71350026 -0.037509292 0.044730723 6188105
0.70675999 -0.023350175 0.047515213 5988657
0.71144903 -0.029334651 0.04491597 6450495
0.70991194 -0.014960784 0.047323465 5856558
0.71168596 -0.018414719 0.045120325 6120503
0.70594847 -0.0033260332 0.043210514 5197624
0.71762377 -0.0065285428 0.047352612 5329706
0.72560328 0.0026771501 0.047709867 4667927
0.73322684 0.0037816211 0.045691729 6641209
0.72107011 0.014578823 0.047828443 13817339
0.74343801 0.015846832 0.044525653 13618674
0.70352936 -0.054248076 0.053143047 12833740
0.71779734 -0.054110851 0.05722405 11913648
0.72202182 -0.054062039 0.053843025 14872555
0.71394861 -0.044521976 0.056447081 7701840
0.70864785 -0.035910502 0.056550249 6185527
0.71569103 -0.035066672 0.059745822 5726261
0.70893431 -0.024212476 0.058139637 5527853
0.7167818 -0.026832256 0.059906613 5594673
0.71433914 -0.015802719 0.05758068 5395498
0.70242774 -0.0040789954 0.054729007 5394987
0.71850616 -0.0071099512 0.057159901 5264168
0.70856214 0.0019447925 0.054326069 4408605
0.72688609 0.0017155408 0.0564599 5131040
0.71767986 0.019361429 0.059634 2242081
0.72651094 0.014627725 0.055881813 12829394
0.73473561 0.019148594 0.058186084 2431522
0.7023834 -0.054503806 0.061572805 13425104
0.71965349 -0.054494984 0.062444896 15527661
0.70738107 -0.04917977 0.069661632 11782301
0.71810693 -0.046663865 0.061981037 9940871
0.7220099 -0.048266202 0.068756901 13097902
0.71147835 -0.036714632 0.067014553 6253118
0.70933938 -0.025190301 0.069047898 5133098
0.71768874 -0.026994999 0.068083435 4869913
0.71769768 -0.018169681 0.064851545 4869916
0.70832866 -0.0040706652 0.062553935 5394725
0.71362042 -0.003977729 0.067721479 4079379
0.72132468 -0.0072032544 0.063624181 4869665
0.71574223 0.0018059686 0.067730129 5326654
0.71396744 -0.058634661 0.079938471 13024441
0.70555484 -0.045688096 0.074421875 8820332
0.71477526 -0.043885231 0.071633302 8689507
0.71364146 -0.03567617 0.073546574 6451521
0.70885301 -0.021989886 0.07875675 6778949
0.70939732 -0.014654813 0.072434545 5199923
0.71387714 -0.014916468 0.073650301 5464370
0.70526528 -0.003423132 0.0763705 4999705
0.72179335 -0.0067530666 0.070345595 4409889
0.7185728 0.00031882618 0.074049443 8813918
0.71718466 0.018717613 0.07091707 3029534
0.73118472 0.017348651 0.07381551 6843240
0.72502804 -0.060431533 0.08677505 12831406
0.70870352 -0.053766292 0.086597346 10859648
0.71619177 -0.054683946 0.083802521 11387278
0.71243781 -0.046414666 0.081107169 8951906
0.70536947 -0.035269346 0.081839181 6977350
0.70017272 -0.026780559 0.08158505 6712898
0.70432764 -0.015347596 0.082731418 6384186
0.70568371 -0.0060785618 0.082709819 6053944
0.71088248 -0.0075241681 0.080875337 6055217
0.71387458 0.0039564157 0.082157537 6051882
0.71583122 0.013211209 0.085407048 6050621
0.72653604 0.013628199 0.083694063 6247488
0.70394963 -0.06108579 0.095545009 12175506
0.71206665 -0.063818224 0.093632616 13223856
0.72037655 -0.060444258 0.094721749 12767127
0.70869714 -0.053164095 0.096072085 10401667
0.71282709 -0.056002785 0.094262153 11454100
0.70488518 -0.043690544 0.091266841 7767120
0.7110799 -0.049311042 0.091739267 9151076
0.70402086 -0.03448344 0.091648214 6120755
0.70353848 -0.019752502 0.091892943 5725481
0.7055918 -0.0075909593 0.092478573 5724969
0.71473491 0.0049864268 0.094761342 5788971
0.706357 0.01098986 0.093422852 6575678
0.71053016 0.016910233 0.093421213 5065267
0.72612906 0.014884922 0.095889181 5852468
0.72308004 -0.062839642 0.10008821 13685419
0.71697605 -0.056023836 0.10459749 14672831
0.70676327 -0.044197571 0.1017874 8755811
0.71316826 -0.048420936 0.10518883 10596747
0.70517302 -0.034431312 0.10245001 6450235
0.70196491 -0.025965475 0.10265958 5396518
0.70379579 -0.019021071 0.10289633 5527075
0.70847893 -0.008043956 0.10288519 5395236
0.71814215 -0.00055595487 0.10647017 5459995
0.70413679 0.0047481377 0.10418155 5591077
0.71620476 0.0019333236 0.10168535 5460772
0.72524726 0.0035309489 0.10816427 5393954
0.70975333 0.012526408 0.10515837 5653550
0.71239573 0.016651079 0.10156039 5721394
0.72753417 0.014617182 0.10516059 5392432
0.73144501 0.011277463 0.10760993 5063456
0.70448077 -0.056108993 0.11324751 12764832
0.72529036 -0.055346392 0.11141168 14077060
0.70472991 -0.047960412 0.11615231 10923650
0.71626931 -0.044285532 0.1109159 10267247
0.72307265 -0.046503045 0.11477962 11252350
0.70950103 -0.035348557 0.1124964 8754021
0.7133624 -0.03509149 0.11345376 8754024
0.72200292 -0.03894271 0.11685266 10198382
0.70610631 -0.024867518 0.11222354 5987887
0.71305424 -0.02003466 0.11643602 5001757
0.70945179 -0.015880994 0.11270475 5329446
0.71330643 -0.015893465 0.11387545 5263395
0.71633399 -0.0085598752 0.11151455 5394722
0.72248548 -0.0043853913 0.11423914 5262626
0.70644265 0.0017907266 0.11214126 5524514
0.71478277 0.010739062 0.11225843 5521976
0.70951468 -0.032905556 0.1248882 14807788
0.71458769 -0.03235656 0.12434662 13227966
0.70881557 -0.024741944 0.12193333 6713153
0.7144447 -0.024771148 0.12513793 6055745
0.71390754 -0.016803134 0.12523766 5854763
0.71319181 -0.022626113 0.13023712 5724735
