# .PCD v0.7 - Point Cloud Data file format
VERSION 0.7
FIELDS x y z rgb
SIZE 4 4 4 4
TYPE F F F U
COUNT 1 1 1 1
WIDTH 130
HEIGHT 1
VIEWPOINT 0 0 0 1 0 0 0
POINTS 130
DATA ascii
0.72108859 -0.14579788 0.025212318 13354471
0.65903425 -0.052143976 0.027447522 1709330
0.66642338 -0.042765759 0.027075605 2431257
0.67091668 -0.015131231 0.026286837 2036753
0.67650753 0.0010772685 0.029204264 1247495
0.70165181 0.016143976 0.025079012 2890773
0.73609996 0.046553086 0.025484271 4601133
0.65728962 -0.12724239 0.053472202 9405328
0.66668588 -0.13038732 0.054124296 9800346
0.6464808 -0.10368597 0.051735964 6839137
0.67975628 -0.11041723 0.037220292 7430512
0.64101195 -0.076296568 0.049653862 5654597
0.64072269 -0.045020655 0.049413458 4667442
0.66671121 -0.036138855 0.037499055 3483426
0.6452015 -0.016165709 0.051525187 3614752
0.67491251 -0.015654592 0.034074258 2825240
0.65261805 0.005066081 0.057649121 3615008
0.67820144 0.0086768158 0.047422592 3549216
0.69222081 0.013418308 0.03879565 3614753
0.68417424 -0.15259388 0.075482383 10193565
0.69722891 -0.16265163 0.080368876 12169662
0.65637672 -0.12688307 0.078979388 7760499
0.66703761 -0.13823323 0.075081035 11905973
0.64559424 -0.10600337 0.075908251 5917770
0.63764095 -0.077750668 0.075050876 4666926
0.63743359 -0.04350948 0.072166346 4732976
0.64443976 -0.014798236 0.075849704 4206631
0.65519601 0.012578975 0.077618919 3351579
0.66512102 0.017888451 0.072069563 3285530
0.6568858 0.045369487 0.08098606 4402981
0.66249871 0.046509627 0.079056628 6048061
0.68686569 -0.1556612 0.10008935 12365494
0.69665027 -0.15867788 0.10413893 12365247
0.65726358 -0.12382245 0.10665403 9208724
0.6717692 -0.1382159 0.10516027 11840185
0.69002205 -0.14997806 0.11451805 13552604
0.64675325 -0.10597643 0.10591221 7102825
0.63802564 -0.07632111 0.10523391 4075308
0.63802373 -0.043706052 0.10332267 3417631
0.64567244 -0.014804153 0.10565498 3220250
0.65493321 0.013135932 0.10239775 3943974
0.66568649 0.016494736 0.11019877 3483424
0.65046501 0.04524409 0.10456944 4535343
0.66083169 0.033466432 0.10924786 4272687
0.70768547 0.043390017 0.11739892 2760218
0.70395249 -0.15859286 0.12064931 11507882
0.65763408 -0.12284946 0.12917279 10001593
0.67128718 -0.1332608 0.12775607 11052217
0.65162152 -0.10365377 0.13506554 6905960
0.66298878 -0.11318884 0.14237793 7498621
0.64378184 -0.075609095 0.13455699 3944493
0.64304978 -0.046133365 0.13509284 3023386
0.65192801 -0.01591284 0.1344986 2957336
0.66393507 -0.010564262 0.14756486 3088664
0.65781248 0.0050274055 0.12729658 2102031
0.67449862 0.015629577 0.13459863 2430737
0.70126641 0.028310407 0.14318888 4072731
0.65066946 0.048004925 0.13308154 5194304
0.6879468 0.030163892 0.12735057 1904397
0.70648211 0.038256694 0.13172874 4073247
0.72245955 0.039632954 0.13890073 4533027
0.64163619 0.065950833 0.14004277 4995636
0.68208331 -0.12680365 0.16605756 11774651
0.70523751 -0.1353558 0.17725447 11249073
0.65496057 -0.099917941 0.16805381 6050393
0.66932994 -0.10935905 0.16862233 8090497
0.69965339 -0.11958377 0.17838947 10394528
0.64923775 -0.075604379 0.16434008 4536631
0.66281259 -0.077148579 0.17852487 5326661
0.64921498 -0.043619242 0.16567117 3483940
0.66113263 -0.057894338 0.17984536 4603193
0.65702033 -0.018705247 0.1661552 3089439
0.66887051 -0.0106911 0.16723023 2957852
0.68024379 0.011798615 0.1685729 3614497
0.70053577 0.020854624 0.15607367 3349524
0.72470731 0.026285999 0.15818021 3351067
0.6479466 0.05560568 0.15509737 6444894
0.72466379 0.034404561 0.15552551 3413780
0.6280157 0.081144013 0.17467697 5326412
0.63690394 0.071606249 0.16503923 6313049
0.62405694 0.094914801 0.17519288 8087907
0.63515848 0.095971026 0.17739372 3152922
0.68941277 -0.12658089 0.18178692 10322079
0.70557284 -0.13098127 0.18558824 9602451
0.73321909 -0.13500008 0.18631588 8024187
0.6794526 -0.10336488 0.18596977 8024962
0.70291084 -0.10378698 0.19290929 9209492
0.73292685 -0.10488296 0.1992933 6839913
0.65562093 -0.067426749 0.18276788 4603708
0.67600518 -0.076249726 0.18939658 5458251
0.70179313 -0.075060509 0.20259443 6117217
0.72510916 -0.082222454 0.20686638 7629177
0.65763599 -0.043106172 0.18639937 4406847
0.67296952 -0.045696046 0.1938633 5195336
0.70501935 -0.044241309 0.20087786 3878957
0.72944671 -0.032098565 0.20656884 4075817
0.67623115 -0.017553613 0.18707992 3484452
0.70371211 -0.013974234 0.19315 4010025
0.73204994 -0.013073989 0.19950472 4601906
0.67306066 0.019149069 0.19320787 2890267
0.70675391 0.0081511354 0.18582396 4733235
0.73766828 0.0047712931 0.19515663 5062456
0.67522293 0.030126324 0.20403501 4331539
0.62733012 0.084641501 0.18308023 7300461
0.63708907 0.082908966 0.18462092 5654862
0.63770235 0.093894884 0.18112943 3352610
0.70308876 -0.066868566 0.2264405 6247517
0.70830506 -0.047464944 0.22567533 3680291
0.72500187 -0.04051147 0.23707838 4336421
0.66818184 0.016584273 0.22497328 3221033
0.67660761 0.033956178 0.22029963 6379098
0.74876201 -0.11745525 0.26548558 1182223
0.71256208 -0.067021042 0.24311125 6184045
0.71223974 -0.054512478 0.24334371 3484202
0.67040634 -0.0071669267 0.26202038 5326154
0.67328006 0.011288225 0.25401518 1972252
0.746032 -0.1212537 0.28046513 3027267
0.73641247 -0.10426107 0.28617042 1511447
0.71384889 -0.077408366 0.29355043 3812131
0.72126275 -0.08836484 0.2890459 3284512
0.68689901 -0.036271572 0.29274485 3155245
0.69515818 -0.046951726 0.29664162 3417898
0.67915791 -0.015511518 0.28366455 3222576
0.69292027 -0.014353062 0.29093209 2040355
0.67962378 0.0057488377 0.27346507 1906197
0.70924103 -0.06945762 0.30572256 2431260
0.68853778 -0.042745102 0.30284196 2236461
0.70488417 -0.047425844 0.30614024 2498853
0.72023815 -0.05362796 0.31268072 3949385
0.6981346 -0.023094639 0.30231768 2041127
