# .PCD v0.7 - Point Cloud Data file format
VERSION 0.7
FIELDS x y z rgb
SIZE 4 4 4 4
TYPE F F F U
COUNT 1 1 1 1
WIDTH 131
HEIGHT 1
VIEWPOINT 0 0 0 1 0 0 0
POINTS 131
DATA ascii
0.65790319 -0.10120776 0.028988183 11052231
0.68187213 -0.092227377 0.021253064 6511211
0.67252159 -0.075010553 0.019057592 5393243
0.64960825 -0.046803661 0.026579585 4141878
0.67036885 -0.041770559 0.013298683 2497313
0.64902216 -0.016003478 0.02867187 2759962
0.67635226 -0.015421243 0.017005075 3088669
0.68288231 0.011410848 0.018239509 1839632
0.78192633 0.084583253 0.014027178 5918021
0.80379999 0.096222021 0.013347313 6378315
0.81434935 0.10126709 0.013797605 7101010
0.78615689 0.13493538 0.01401338 6640453
0.68425077 -0.12663487 0.050988406 13485277
0.657166 -0.094305791 0.047939993 6444895
0.66751343 -0.10574567 0.049702369 8221057
0.65068054 -0.072924741 0.045118071 6180685
0.64456016 -0.044949472 0.044378441 5259320
0.64756471 -0.012855653 0.045978293 4601390
0.65513158 0.011679603 0.046832386 3614750
0.66253471 0.020112628 0.044737637 3680030
0.67684871 0.042722262 0.050187759 3219735
0.69473064 0.057032369 0.051653087 3284499
0.70194519 0.062738404 0.058025271 3284240
0.68098611 -0.12324188 0.073728807 13420502
0.65699583 -0.095836312 0.070385709 5326927
0.66839749 -0.1076988 0.076240346 7629689
0.64995116 -0.074267164 0.074065037 5851721
0.6609534 -0.088511303 0.089620531 8153704
0.64368844 -0.044487432 0.073986255 4404011
0.64743829 -0.012898967 0.07438004 4206374
0.65338707 0.0085303877 0.073059365 3417371
0.66287696 0.023982411 0.077386111 3351834
0.67750835 0.042324308 0.074551754 2956306
0.69877452 0.057803571 0.074992828 3152657
0.70540017 0.064939372 0.071316764 3283988
0.68713677 -0.12526517 0.096287459 16776700
0.65864569 -0.092199393 0.1021541 5459804
0.67232728 -0.10653779 0.1064209 8289173
0.65203339 -0.071873941 0.10306076 5720908
0.66269422 -0.085523739 0.11030079 7167590
0.64796042 -0.04584647 0.10640849 3746599
0.6500085 -0.015397804 0.10420711 3943974
0.65699172 0.0083577503 0.10294229 3615265
0.66600633 0.019136393 0.10629266 3220252
0.68093401 0.039718263 0.10306938 3219479
0.69593501 0.050552845 0.10826294 3613208
0.80305111 0.077866904 0.10583588 4336933
0.81105673 0.085155129 0.11866028 3087380
0.81286484 0.091102861 0.1198193 3084561
0.67652279 -0.098216966 0.13360435 8288914
0.65719777 -0.069090091 0.1293104 5852750
0.66714764 -0.079230383 0.13593353 6510944
0.65535247 -0.045713142 0.13324416 3615524
0.66175425 -0.049981549 0.13725495 4732979
0.65670317 -0.018343495 0.13037761 3089177
0.66400725 -0.012187379 0.13731909 3417629
0.65830749 0.0018261507 0.1208674 3155739
0.67535549 0.015887657 0.13413566 2759957
0.69048923 0.02884835 0.14387764 2627346
0.68388867 0.034698647 0.12600812 2561809
0.70393491 0.043542817 0.13421242 2955538
0.72712928 0.053130835 0.13517012 3348495
0.7301451 0.061012413 0.13160938 5060912
0.80752522 0.075778417 0.12772074 3023388
0.8140074 0.078500845 0.13420013 3483427
0.81860256 0.094972834 0.1396331 3085325
0.67877054 -0.12319423 0.17191812 7827065
0.68140006 -0.10437278 0.16158858 6049623
0.70504612 -0.10529763 0.16700181 7497589
0.73302597 -0.099997662 0.17694014 9800084
0.6583392 -0.061966844 0.15777795 4076338
0.67549461 -0.074606247 0.16467476 5194820
0.70214134 -0.077656873 0.17641479 7235439
0.72144037 -0.085993536 0.17929065 9207951
0.65720874 -0.042579841 0.15906604 3746856
0.67253101 -0.045024902 0.16712351 4799540
0.69470006 -0.043045342 0.17902263 4668214
0.65830231 -0.02201435 0.15974802 3548707
0.6740914 -0.013518181 0.16696343 4010281
0.69791883 -0.010923332 0.17720129 4601390
0.67917961 0.011248901 0.16169642 3352095
0.70252335 0.017205033 0.17196611 4009766
0.72445786 0.017124772 0.17801717 3878179
0.68915939 0.030570807 0.15588474 4008483
0.70457602 0.036789436 0.16054155 3811875
0.73148841 0.038967334 0.17105074 3877927
0.75574243 0.041461416 0.17410071 4338220
0.81948358 0.088303231 0.15683565 3220774
0.81973678 0.097703353 0.15066901 3022101
0.67486763 -0.12145254 0.19428337 5199479
0.67746609 -0.11193401 0.19705696 4141103
0.74674189 -0.091151901 0.18121013 9010565
0.71233994 -0.070602603 0.18450652 7564660
0.73416108 -0.073733263 0.18742982 8879236
0.75223672 -0.0885709 0.18643034 8681596
0.68736196 -0.041064158 0.1811763 3288109
0.70790684 -0.044405527 0.19023839 4537149
0.72297317 -0.042922914 0.19762759 4538184
0.70656419 -0.017098134 0.18428977 3746853
0.72977614 -0.014902252 0.19205031 3023389
0.7653141 -0.0027035405 0.18937379 5063230
0.71273172 0.0034942871 0.18115142 3812642
0.73435825 0.013786028 0.1881239 3220772
0.75158906 0.0068492955 0.18849097 4471095
0.73495084 0.031283364 0.18169975 4272169
0.78950906 0.041562498 0.19735575 4406334
0.67330885 -0.12006944 0.21419349 10136769
0.67940199 -0.10944237 0.2279985 1248281
0.71263725 -0.041943014 0.21682338 4406589
0.7233513 -0.041276135 0.22391096 6972775
0.71863526 -0.023907416 0.21698849 4206632
0.72757417 -0.021566773 0.22254342 3613982
0.77668333 0.024436131 0.23287147 1444887
0.7828995 0.029476531 0.21500038 1510678
0.77845865 0.039044004 0.22796689 656390
0.7825346 0.039944991 0.22137639 853770
0.68596625 -0.10050265 0.24993555 1050639
0.70032543 -0.10134592 0.26438996 9605018
0.68899554 -0.087817125 0.26211494 2690052
0.69136333 -0.086241007 0.26212087 2166796
0.76479244 0.015194605 0.25897107 1511187
0.77432692 0.032716475 0.24867541 788490
0.70461863 -0.093545489 0.27534011 5721687
0.70700496 -0.074495047 0.28222907 2566193
0.72056258 -0.062385902 0.29751712 4146512
0.71274614 -0.050918769 0.28478333 2430740
0.7268979 -0.040057726 0.29141197 1643799
0.73941344 -0.014772832 0.28641647 1445648
0.75157255 -0.0037282594 0.27579239 4405300
0.74896741 0.0022621257 0.27897379 656901
0.75763381 0.0092920139 0.27565533 985612
