# .PCD v0.7 - Point Cloud Data file format
VERSION 0.7
FIELDS x y z rgb
SIZE 4 4 4 4
TYPE F F F U
COUNT 1 1 1 1
WIDTH 134
HEIGHT 1
VIEWPOINT 0 0 0 1 0 0 0
POINTS 134
DATA ascii
0.68931252 -0.094108507 0.026133209 11907805
0.69576871 -0.090973839 0.027019158 9802677
0.67253643 -0.067582384 0.027112851 5392733
0.65826279 -0.038817085 0.028671384 3680309
0.66567594 -0.045099925 0.026775016 3550007
0.66515601 -0.02108217 0.025489286 3220263
0.67503452 0.017461356 0.026569609 3088670
0.68531781 0.033790298 0.025607228 3219997
0.69441468 0.044616107 0.026330709 2956311
0.65886968 -0.091340601 0.051649254 8549758
0.6721195 -0.10158875 0.051483996 9669022
0.65040886 -0.076078892 0.051277265 7299690
0.67649019 -0.075657517 0.031300969 6116201
0.64187998 -0.044305965 0.048020534 5523529
0.66031772 -0.043018751 0.03059075 2367020
0.64135259 -0.018470999 0.048168473 4536115
0.66314965 -0.012851724 0.036168076 2431516
0.6433996 0.013985669 0.052793242 3680802
0.67167443 0.013273597 0.03598645 2497047
0.65396237 0.03212297 0.051861007 3483166
0.68429029 0.040248144 0.039970092 2497045
0.69997978 0.055096518 0.037480216 2890516
0.70940965 0.063794665 0.031977102 3614236
0.68782341 -0.12285818 0.078159958 11839933
0.69163114 -0.12547995 0.076000489 9997211
0.65451002 -0.092049509 0.076295175 6642275
0.67157906 -0.10828102 0.076908164 10853286
0.64718705 -0.075072296 0.075123936 6181200
0.63757354 -0.047619812 0.073133416 4864306
0.63672751 -0.012458061 0.074636988 4469547
0.64378142 0.014209796 0.07263767 4338473
0.65377325 0.036920696 0.072590321 3680541
0.66588324 0.052177642 0.075807787 3680027
0.6747849 0.071066387 0.076683298 4337445
0.67761672 0.094963692 0.083529636 7626837
0.68536216 -0.12185893 0.10419642 11773363
0.65555912 -0.093611099 0.10300431 9209493
0.67282379 -0.10682602 0.10587368 11906234
0.6470896 -0.074393436 0.10383774 6839907
0.63831681 -0.047578011 0.10570359 4141615
0.63712955 -0.012330667 0.10496232 3089179
0.64465791 0.015257215 0.10377506 3417885
0.65460557 0.037271395 0.10187802 2496786
0.66907817 0.051966537 0.10509932 2299407
0.67160779 0.075304165 0.10488407 4075048
0.69160795 0.064738415 0.1198867 2626832
0.66941464 0.097353213 0.10466787 3547416
0.67070484 -0.098636784 0.13001832 9868207
0.65252584 -0.073939011 0.13442941 7695477
0.66406447 -0.08246088 0.14196728 8683150
0.64344198 -0.045116398 0.13535215 3878442
0.64170808 -0.015593281 0.13437629 3220764
0.65091217 0.016517185 0.13313693 3089179
0.66386986 0.023924567 0.14320284 2891541
0.65798485 0.035881229 0.12872717 1905423
0.67328089 0.045752198 0.13452896 2496272
0.69934231 0.058764935 0.14309627 3678229
0.67371082 0.078843027 0.12777187 3943979
0.70338374 0.068506911 0.13346505 2824212
0.66706115 0.10068446 0.13510308 5325117
0.68012881 -0.095664002 0.1652841 13486037
0.70327878 -0.1078155 0.17658214 11708855
0.72416288 -0.10590351 0.17911021 6179687
0.65451062 -0.068004332 0.16657594 6115926
0.66747767 -0.078534164 0.16698733 7432566
0.64993703 -0.046750844 0.16580214 4536374
0.66565692 -0.058529496 0.17931744 5457999
0.64940089 -0.015330104 0.16532473 3746599
0.66050565 -0.0015206719 0.17872295 4010804
0.65636647 0.011114659 0.16250312 3220767
0.66432393 0.020582674 0.16510905 3022618
0.67924511 0.039314959 0.16423038 3679518
0.69501203 0.048303001 0.16547087 3086870
0.70968634 0.060245544 0.15276451 4006937
0.72087991 0.068124622 0.15046191 4335138
0.6583786 0.11155154 0.16233918 5852498
0.66496974 0.10844015 0.15936315 6313048
0.65425307 0.13166729 0.17348875 7166291
0.662458 0.12062462 0.16406734 5521721
0.6888445 -0.093539424 0.1825251 3940422
0.708803 -0.099499844 0.1825823 9010062
0.72093415 -0.098113924 0.18761288 7103088
0.67883503 -0.072288811 0.18522184 7169906
0.70215487 -0.073413387 0.19228569 8485770
0.72739112 -0.070404865 0.1980335 7894146
0.65706831 -0.045443948 0.18222819 4997957
0.67566711 -0.04429863 0.19023812 5326663
0.70243192 -0.045383949 0.20225048 6117215
0.72368819 -0.053628072 0.20558825 11314866
0.65708357 -0.014435463 0.18258709 4208691
0.6728785 -0.015753238 0.18982901 4010542
0.70346761 -0.013937705 0.20337 4075052
0.65913773 0.014107658 0.18206975 2826014
0.6756233 0.013133825 0.19022836 3549734
0.7069748 0.019818118 0.1932984 3878441
0.73358387 0.012423546 0.2031516 4996922
0.68023974 0.047969051 0.18993014 2693404
0.70446908 0.04317306 0.18712507 4601648
0.72804391 0.046990931 0.18880558 4799286
0.68254519 0.06611599 0.20139879 4139039
0.65606099 0.11823837 0.18097848 12304831
0.66244024 0.11989586 0.1823269 8747651
0.65274268 0.13226096 0.18501911 6378834
0.6640954 0.12248969 0.18547261 8287356
0.7492882 -0.11127459 0.23724779 1249304
0.7083891 -0.037864085 0.2257375 7103856
0.70757765 -0.017723145 0.22569764 3417376
0.72874242 -0.0080353497 0.21210623 5391166
0.67869753 0.052528191 0.22561224 1643294
0.68195212 0.064585418 0.22170784 2758936
0.69514108 0.07045874 0.22940429 9403509
0.74615079 -0.10452648 0.25577652 2170407
0.74525565 -0.088783048 0.26925358 1180681
0.70679009 -0.036947735 0.2429302 7566460
0.71155578 -0.024844319 0.24213926 3879475
0.68093038 0.027509943 0.26735258 5457226
0.67991859 0.045250569 0.25400028 1708824
0.69179964 0.051195864 0.26493055 2035989
0.68523622 0.065460727 0.24065274 2102039
0.74002409 -0.096613169 0.27683508 1184292
0.71810734 -0.065272637 0.29245824 1641739
0.73160517 -0.080288634 0.28680074 1314067
0.71008182 -0.044320486 0.29711956 5982268
0.72135574 -0.057037979 0.29366031 5717031
0.69659084 -0.013663514 0.29493576 6772566
0.68604189 0.015562949 0.28491795 4405308
0.6949473 0.015535587 0.29166448 2695463
0.68134332 0.038302816 0.27459273 1577752
0.69240206 0.038997356 0.27846238 1840150
0.72248125 -0.063563325 0.3012127 1249303
0.71016395 -0.043188341 0.30539542 1445653
0.72281373 -0.052823216 0.30555922 1576212
0.7050637 -0.016166124 0.30631682 1840668
0.70497936 0.0036686466 0.30406433 2104352
