# .PCD v0.7 - Point Cloud Data file format
VERSION 0.7
FIELDS x y z rgb
SIZE 4 4 4 4
TYPE F F F U
COUNT 1 1 1 1
WIDTH 123
HEIGHT 1
VIEWPOINT 0 0 0 1 0 0 0
POINTS 123
DATA ascii
0.68364191 -0.062023934 0.027652234 6904680
0.67097247 -0.020393699 0.026013017 2958123
0.67627138 0.016254256 0.026407376 1971220
0.68071091 0.035786368 0.026613206 1773839
0.69594753 0.055831514 0.025415704 1313288
0.67941302 -0.097560577 0.051723707 10459053
0.69918376 -0.1100859 0.055203319 11907280
0.65665734 -0.066346541 0.047764588 6904674
0.66674906 -0.076748602 0.045668878 8023675
0.64929909 -0.046144214 0.049169179 5983563
0.6447162 -0.015871176 0.049479514 5391164
0.67065686 -0.014001176 0.032579623 4206896
0.65039498 0.015252625 0.049283009 4009256
0.65673178 0.037215907 0.051866114 3417630
0.67171621 0.036435217 0.036129687 2824984
0.71585506 -0.1216967 0.074540943 13093864
0.6776377 -0.0972277 0.073425367 9931925
0.69764441 -0.11118604 0.074248545 9667986
0.65433836 -0.067961469 0.074613437 5588289
0.66701823 -0.079617426 0.073999524 5588805
0.64764249 -0.04479466 0.076977849 4338476
0.64304745 -0.013313662 0.074135616 4009252
0.64784068 0.017729215 0.076923534 4009253
0.6283471 0.04904123 0.084717549 4666159
0.63890314 0.043156803 0.074297272 3154460
0.63515234 0.064242654 0.08044976 3087379
0.71536732 -0.1229336 0.09777607 12035758
0.72065765 -0.12238334 0.10054524 12034984
0.68201447 -0.097118974 0.10324323 10920371
0.70214719 -0.10978696 0.1035485 11708856
0.72733444 -0.11903375 0.10774846 12168372
0.65538073 -0.066875935 0.10318757 6773342
0.66706139 -0.077850528 0.10386965 6181979
0.65000027 -0.043886099 0.10691981 3813164
0.64824474 -0.013657935 0.10787054 2431507
0.65064043 0.015056002 0.10544705 2365970
0.66114199 0.027872967 0.11082725 1577485
0.62535292 0.050601326 0.10628789 5786191
0.64388198 0.04033732 0.10471321 4009774
0.66896957 0.046203282 0.11412687 2563098
0.6257965 0.069592975 0.10249005 3548190
0.6316725 0.073610082 0.092806749 3744031
0.68047857 0.062461309 0.11199859 5656135
0.70021009 0.076334685 0.11227576 4337961
0.68167019 -0.091805615 0.12796901 13489126
0.70574182 -0.10466809 0.13051461 11446196
0.65727776 -0.063273862 0.12562673 6838877
0.6744377 -0.074702226 0.13449611 7564924
0.69467783 -0.082657591 0.14536262 15791359
0.65538323 -0.042680297 0.13313788 4076851
0.66422075 -0.048308596 0.13875934 4669247
0.65156364 -0.015236202 0.13295428 2628886
0.66210264 -0.014719252 0.14050518 2694678
0.65451086 0.011560283 0.13001171 2365970
0.66526276 0.017456217 0.13602275 2103056
0.62102461 0.058254592 0.12911166 6051164
0.63086331 0.05364278 0.12606066 5919320
0.67555857 0.044106603 0.13495815 2036494
0.69419461 0.053690732 0.14209491 2299150
0.61387831 0.068328924 0.13928002 5588807
0.68713999 0.061517812 0.13114552 4139042
0.70418191 0.069697171 0.13490096 3284758
0.72751981 0.077696711 0.13807522 3547415
0.71012825 -0.094236083 0.17009008 11577778
0.73657739 -0.098621696 0.17637417 7498868
0.6774931 -0.071194977 0.16403185 7169907
0.70128351 -0.076900966 0.17212838 9208979
0.73217237 -0.086621754 0.1786736 8353664
0.65782487 -0.043582074 0.16290949 4010550
0.67015231 -0.04586884 0.16800202 4668989
0.65685946 -0.01534113 0.16206601 3155490
0.6672895 -0.015566693 0.16895658 3549991
0.65827024 0.0060841739 0.16302495 2628891
0.6713618 0.014691214 0.1677141 2563610
0.69342071 0.019199651 0.17852765 3089437
0.65344113 0.034647249 0.17845234 1707286
0.67331541 0.037762482 0.16478743 2891803
0.69634432 0.049156267 0.16323267 3548192
0.59403908 0.083059661 0.16476324 4865083
0.60958838 0.075367913 0.1636067 5985371
0.69988966 0.060914285 0.15837875 2692112
0.59124947 0.098252498 0.16304477 6705996
0.60485661 0.097122148 0.16706908 2759191
0.72605199 -0.090211809 0.18015465 8089718
0.71132249 -0.068987079 0.18544398 8552072
0.73241013 -0.072591104 0.18572354 8419715
0.68260723 -0.042741764 0.18210727 5590348
0.70439786 -0.044288628 0.18897401 6117471
0.73355806 -0.047009241 0.19464993 7695990
0.67563438 -0.014083907 0.19016816 3089703
0.70990205 -0.016263822 0.19552568 4011576
0.72625405 -0.011983178 0.20161211 2695714
0.65695703 0.028717259 0.20107251 2827289
0.68319607 0.010492974 0.18231158 3418915
0.70438999 0.012596426 0.18909821 3550245
0.7328226 0.014899732 0.19514769 3484452
0.65276259 0.038635306 0.19512567 1774612
0.66408944 0.050511159 0.19922775 2760219
0.70485628 0.031973768 0.18675512 3485481
0.74157023 0.030130392 0.1918653 3946291
0.71302456 -0.030051511 0.22521207 6050663
0.72563958 -0.030735269 0.22937874 9406104
0.7148847 -0.017704876 0.22469607 3353391
0.72590113 -0.01222581 0.22962189 3024422
0.65361869 0.026140235 0.22536191 2893621
0.66022223 0.027274381 0.23401487 1513243
0.71843249 1.019903e-05 0.21678892 6569524
0.72911274 0.003489261 0.22503594 5193258
0.65385866 0.037063152 0.22336021 1512219
0.66443849 0.044282191 0.22384182 1642770
0.65753692 0.022662455 0.24934141 3354426
0.66941118 0.020860031 0.26145703 2236454
0.6592899 0.033393316 0.2461921 1119252
0.66767913 0.036079101 0.25458089 1183503
0.68272954 -0.001754637 0.28057107 5457487
0.70465899 -0.0088548847 0.29203486 4208959
0.72031617 -0.018007364 0.29825687 2827824
0.68148458 0.013810778 0.28048044 2303017
0.69905585 0.010026776 0.28999233 1646628
0.67643052 0.030936349 0.27364314 1249806
0.71787077 -0.010885232 0.30252841 3684931
0.73260021 -0.016732499 0.30288133 3816772
0.69897312 0.005273127 0.30031675 2306892
