# .PCD v0.7 - Point Cloud Data file format
VERSION 0.7
FIELDS x y z rgb
SIZE 4 4 4 4
TYPE F F F U
COUNT 1 1 1 1
WIDTH 149
HEIGHT 1
VIEWPOINT 0 0 0 1 0 0 0
POINTS 149
DATA ascii
0.76751816 -0.19096091 0.013760623 14735599
0.80742592 -0.19577773 0.013188243 14275314
0.8163445 -0.19626445 0.017667636 14604272
0.73786533 -0.16567916 0.014431648 14472434
0.7562024 -0.17584878 0.014431496 14537964
0.68290728 -0.12753555 0.019565972 7630211
0.69746399 -0.14579569 0.026645426 9206673
0.65475053 -0.093274482 0.029139601 5457996
0.66699213 -0.10568856 0.020716557 5655902
0.65020251 -0.0748583 0.022508048 3287081
0.66161036 -0.075985171 0.017486395 3352109
0.65089744 -0.045359597 0.023042822 2299670
0.66298372 -0.043452024 0.018235536 2233621
0.67241776 -0.017483125 0.021360833 1774096
0.69047505 -0.0030273325 0.014707654 4403501
0.68500441 0.0067946562 0.021974914 2825239
0.6976878 0.015158431 0.017733125 3220253
0.69705182 0.034323737 0.015574157 6114115
0.7225582 0.033577088 0.014460497 4732205
0.65149361 -0.13014479 0.049856562 8287106
0.67703187 -0.13073863 0.035787608 8154747
0.69206178 -0.13973306 0.031796943 8484486
0.64073718 -0.10337856 0.046462674 7035739
0.66589284 -0.10112447 0.032044068 5852234
0.6275664 -0.072906226 0.055006236 5457727
0.63729936 -0.075071476 0.043234885 5851974
0.62832534 -0.046447217 0.055969473 4996917
0.63778383 -0.043312758 0.044394113 4733234
0.6647867 -0.033661667 0.033036079 2299408
0.64532489 -0.014660005 0.048083715 3877665
0.66480988 -0.027759369 0.032734819 2299408
0.65304983 0.0055462765 0.051222064 3615264
0.66906267 0.012426979 0.044408191 3088409
0.69730902 0.012723587 0.031608902 1970191
0.68542933 0.036504038 0.058320284 5257517
0.67697853 -0.15816072 0.081335112 12891844
0.65201169 -0.13180891 0.073390611 7827325
0.6661728 -0.14260659 0.077491507 11051700
0.62976444 -0.094350576 0.081863433 4932673
0.64003134 -0.10605986 0.07494013 6443860
0.62715071 -0.075557441 0.076967776 4075561
0.6329121 -0.074529007 0.075662516 4798769
0.62792945 -0.044602457 0.078671418 3023641
0.63492537 -0.042573415 0.076043017 4337959
0.64286399 -0.015154753 0.076034397 4075301
0.65372628 0.007091301 0.075150773 2891800
0.66770422 0.01999937 0.075385191 3548442
0.6818856 0.032752521 0.072329655 4468259
0.69552588 0.038556397 0.079146378 4929584
0.79554921 -0.18224452 0.11475065 15129844
0.68191248 -0.15750806 0.098454475 12036796
0.69366282 -0.1577754 0.10724404 12167609
0.79058027 -0.17448601 0.11430468 6377836
0.65233135 -0.12791225 0.10377076 8092304
0.66912395 -0.14045148 0.10568669 11709888
0.64141291 -0.10456144 0.1037737 6773598
0.62796026 -0.075233907 0.1017449 3286817
0.63701373 -0.077095829 0.10737371 4141099
0.62819231 -0.05232976 0.10352911 2760469
0.63784099 -0.044043344 0.10770796 3352351
0.64454734 -0.015871653 0.10594966 3483937
0.65535522 0.0063788537 0.10339053 2300179
0.67144281 0.016822709 0.10586577 3876640
0.68670702 0.031459328 0.09602046 5124905
0.69717836 0.035686437 0.10469863 5389105
0.79773027 -0.18605991 0.13589641 11578046
0.81000328 -0.18441042 0.143002 7498619
0.70943642 -0.15501998 0.13376302 12365757
0.7294364 -0.15846407 0.13856457 7362924
0.80010724 -0.17074789 0.13364749 6179654
0.81347609 -0.17270973 0.14122654 5522495
0.65359491 -0.12309182 0.12726574 9344440
0.66764069 -0.12823418 0.13323957 11644619
0.70206535 -0.14791958 0.13704669 14669542
0.64916497 -0.1038072 0.13268259 7169130
0.66312832 -0.11378999 0.13759977 8288646
0.6427241 -0.075809151 0.13513345 4667956
0.64401579 -0.04566361 0.13535294 3878436
0.64971006 -0.018693676 0.13259792 3418399
0.66620916 -0.0088505261 0.14192265 3549216
0.65680975 0.0038830866 0.12278251 1971988
0.67600483 0.010416257 0.13296349 3482139
0.70026934 0.021443844 0.13740496 4598305
0.70018923 0.033187896 0.12345743 4993065
0.80669588 -0.18947157 0.16105402 8484991
0.81441331 -0.19111319 0.16668689 6444637
0.80298084 -0.17582454 0.15284835 4735038
0.8151083 -0.17759857 0.15532553 4996922
0.67972589 -0.12928051 0.16613355 12168128
0.70502746 -0.13515081 0.17280346 9931413
0.72215825 -0.13994516 0.177994 7759980
0.7767821 -0.14105646 0.17770319 4931664
0.65320069 -0.10214364 0.16248338 6642530
0.67214966 -0.10836887 0.17080374 7563897
0.69303739 -0.11275914 0.17719224 9275283
0.64754254 -0.075295031 0.16408311 4734266
0.66927445 -0.077415749 0.17654756 6708055
0.6501894 -0.044515774 0.16510811 4207919
0.67032117 -0.042644821 0.17543143 4733749
0.6538108 -0.022690689 0.16451038 3747369
0.67303181 -0.011544589 0.1684854 3944492
0.69856477 -0.0075490782 0.17752519 4996405
0.65649754 0.011932665 0.17954272 2955539
0.67031217 0.007272298 0.16595173 4140328
0.6975503 0.0036026528 0.173099 4406334
0.82205403 -0.19806114 0.18566346 5324860
0.77162504 -0.15287405 0.20183343 5986407
0.72896934 -0.13017038 0.18559432 6971496
0.77228785 -0.14303228 0.19845134 2300445
0.78312916 -0.14559498 0.19439001 4339262
0.68443125 -0.10263817 0.18305475 7365999
0.70364326 -0.10369299 0.18647997 7827068
0.7287991 -0.10238858 0.19161965 7826811
0.675614 -0.074550338 0.18415824 5458250
0.70471388 -0.07578627 0.19700257 5722460
0.67788786 -0.047652718 0.1850794 4536627
0.70427257 -0.044778019 0.19467509 4404525
0.72439939 -0.037631575 0.19854194 4931126
0.6575917 -0.0023219404 0.20861921 4470838
0.68001014 -0.020871168 0.18174599 5062971
0.70687443 -0.018512564 0.18585175 5325627
0.72895515 -0.023981944 0.19216712 5457212
0.65361619 0.0093559353 0.19741045 2301218
0.66374761 0.01491254 0.19630279 4140587
0.76887572 -0.15235335 0.21798593 3158088
0.76378268 -0.13937928 0.22499654 1774361
0.70659268 -0.06990625 0.22498812 4866121
0.70961243 -0.052738681 0.2230667 3417375
0.6545918 -0.0026583122 0.22724628 2762292
0.66135955 -0.0057265041 0.21919125 7564147
0.65331155 0.005738121 0.22085863 2367012
0.66361141 0.012879789 0.22539033 3152923
0.74703461 -0.1315943 0.25564685 1249310
0.75463104 -0.13489731 0.25156501 1841705
0.73951733 -0.11678293 0.26578099 1575178
0.67108351 -0.035643853 0.26947203 6313045
0.65739918 -0.013194659 0.2542558 2367273
0.66651845 -0.011287128 0.25965303 2957345
0.65909535 0.0031619472 0.24621733 4270618
0.67135477 0.001689014 0.25490916 4468523
0.73930269 -0.12679359 0.27506158 2106948
0.71711779 -0.098884255 0.28872696 1512223
0.73255396 -0.11136472 0.27983004 2038566
0.688389 -0.066003829 0.29110926 3417131
0.69963831 -0.073214531 0.2921052 2695463
0.67855394 -0.042918466 0.28454095 2827308
0.69406909 -0.045936227 0.29319859 2368809
0.67547637 -0.023034224 0.27765432 3550246
0.70140946 -0.061128687 0.30018818 2830133
