# .PCD v0.7 - Point Cloud Data file format
VERSION 0.7
FIELDS x y z rgb
SIZE 4 4 4 4
TYPE F F F U
COUNT 1 1 1 1
WIDTH 128
HEIGHT 1
VIEWPOINT 0 0 0 1 0 0 0
POINTS 128
DATA ascii
0.79733205 -0.11683542 0.0285329 14472428
0.7365635 0.058356047 0.027216597 3876900
0.75799847 0.081037633 0.027476791 4402727
0.76439583 0.10313439 0.027855013 5982015
0.79053456 0.11141179 0.02849187 6244932
0.81958485 0.11799739 0.029316768 7100242
0.776546 -0.10672531 0.030044138 14473205
0.7085095 -0.070311837 0.04575194 8615052
0.72008955 -0.074920371 0.035227299 11642826
0.68742383 -0.058250081 0.057367846 9863572
0.71016264 -0.04642358 0.036010664 6444650
0.67786807 -0.017962163 0.056645378 6903905
0.70183623 -0.017111422 0.038690958 4536389
0.68194366 0.014779213 0.051583022 4009776
0.70637107 0.01765221 0.040306166 3154725
0.68841672 0.033291187 0.057348736 4140584
0.71023726 0.036981914 0.038505439 2496534
0.72600889 0.055619817 0.037154991 2298896
0.73838311 0.069489062 0.040791612 2890260
0.76818156 0.08865951 0.031526186 4994351
0.77233404 0.10314956 0.031585295 5982529
0.79286206 0.10772928 0.03178338 5850942
0.82418472 0.11636028 0.03507391 6837322
0.65836525 -0.071627975 0.086449564 7758701
0.66366875 -0.076861009 0.081314042 8878214
0.65605044 -0.056806952 0.088663451 6575706
0.6749 -0.042775624 0.076359905 6706261
0.67543018 -0.014497547 0.076538973 5719362
0.67990565 0.014973246 0.073973618 5325116
0.68767709 0.037555575 0.076462947 4403500
0.69564015 0.051035132 0.077454142 4008483
0.70604837 0.06756822 0.081390813 3679514
0.72446394 0.084999807 0.084667407 4534564
0.73649544 0.090944394 0.079801843 5913911
0.75454593 0.10672413 0.089237809 7231058
0.65088409 -0.074703082 0.10684963 6443605
0.65815073 -0.056968641 0.10582647 4732982
0.67329115 -0.045898501 0.10718291 3220256
0.67686474 -0.014961313 0.10523078 3549221
0.68067712 0.014070123 0.104339 3746597
0.68776608 0.037159473 0.10150062 3812391
0.69737387 0.051851105 0.10408098 3285532
0.71109104 0.068347782 0.10615 3482395
0.730726 0.084229134 0.10490917 4533284
0.74234945 0.093543768 0.10452659 4467750
0.62850618 -0.093549438 0.14477107 8878981
0.63640422 -0.092616916 0.1367992 9865617
0.64253175 -0.076106541 0.13349722 5719877
0.68931359 -0.060192239 0.12932155 2627106
0.70127845 -0.072552405 0.14063166 6248289
0.68442553 -0.043753915 0.13259797 3812911
0.69217062 -0.055812053 0.13929647 5195088
0.6810537 -0.015143245 0.13323286 3417376
0.68507826 0.012882737 0.1327635 3549473
0.69122648 0.022643007 0.1398934 3944231
0.68734455 0.031904556 0.12471605 3878441
0.70164841 0.045975991 0.13648039 2957083
0.7145651 0.066549405 0.12994853 3612955
0.73036236 0.077579938 0.13302036 4335392
0.61533189 -0.10156428 0.16893011 8022384
0.63200802 -0.10068429 0.15177946 10324886
0.62727141 -0.087211259 0.16342415 5258813
0.63612199 -0.080650121 0.1577118 4337453
0.70771122 -0.068487689 0.1658408 9670048
0.72284567 -0.080921322 0.17243746 10984370
0.68891633 -0.037028946 0.15102106 4799807
0.69623154 -0.046414513 0.16332097 5391947
0.68807334 -0.014270143 0.16338134 4009769
0.69278622 -0.01491619 0.16446142 4206636
0.68807149 0.0090166787 0.15260547 4009508
0.69771963 0.017809412 0.16377369 3878183
0.71002197 0.04254337 0.16378827 3351327
0.7234413 0.056154612 0.16678672 3942176
0.73572987 0.069248825 0.1580065 3809303
0.75550127 0.075213559 0.16087346 3940373
0.62016404 -0.10282501 0.18372054 6445151
0.6820482 -0.066382751 0.19777764 6577767
0.703686 -0.069922 0.18214512 8813702
0.68145812 -0.052300312 0.19423942 3353137
0.70632136 -0.041767605 0.18821271 5260357
0.73201931 -0.03987895 0.2017097 6444115
0.68710107 -0.012929142 0.1812299 3285796
0.70542687 -0.014947996 0.18930687 4602167
0.73208755 -0.015602922 0.20390487 4339512
0.68931639 0.0092450483 0.18119855 3023393
0.70739281 0.015035138 0.18842424 4404528
0.73379946 0.014377203 0.20157795 4535855
0.75439203 0.022083087 0.2084495 4141354
0.71135932 0.039075147 0.18494816 3877670
0.73425919 0.044839244 0.19322549 4667442
0.76252872 0.042548407 0.20310138 4404526
0.83919585 0.034975957 0.19996768 3023655
0.85030156 0.042443413 0.20494704 3812146
0.73990297 0.06395267 0.18891202 4468270
0.76012701 0.063022465 0.19551919 4469808
0.68185312 -0.067922242 0.22332412 4801621
0.67933178 -0.051451966 0.22665045 2563878
0.74857712 -0.032626797 0.21260151 7562865
0.75752449 -0.032079522 0.22129357 8418692
0.74646765 -0.015394926 0.22409065 4142137
0.75540984 -0.016597699 0.2238864 4931656
0.74435866 0.001440634 0.21102336 3813162
0.75828099 0.0072890953 0.21951199 3811105
0.83713388 0.041596152 0.23584735 919310
0.84735733 0.043646913 0.22269978 3287083
0.68433356 -0.067032687 0.24978772 6120313
0.69243312 -0.063033909 0.26113677 4870761
0.68545204 -0.046963654 0.25402144 3618366
0.69222194 -0.047121886 0.26732701 2895675
0.74707776 -0.015367477 0.24234281 4274240
0.75772715 -0.015739216 0.24926333 5523788
0.75798988 0.0021130308 0.24419299 1904393
0.82553387 0.029144645 0.25474551 2630709
0.83317238 0.041624755 0.2522029 1445136
0.8401106 0.043779813 0.24147916 788487
0.6898672 -0.061743263 0.27004939 7239051
0.69726396 -0.060465146 0.2751438 2894408
0.68966001 -0.046989128 0.27080306 3422794
0.70227456 -0.043658689 0.2853637 2963269
0.72369945 -0.03674379 0.29874265 3755609
0.7110827 -0.027283173 0.29022369 1311747
0.80510795 0.02371908 0.28130835 1051153
0.81547594 0.028116783 0.27189243 1510169
0.81741214 0.035002902 0.27425528 657158
0.71836573 -0.030562866 0.3005681 1250853
0.73140472 -0.035672817 0.30889979 3687490
0.71557343 -0.023179589 0.30393332 1181965
0.73588067 -0.022231614 0.31081948 2238773
