# .PCD v0.7 - Point Cloud Data file format
VERSION 0.7
FIELDS x y z rgb
SIZE 4 4 4 4
TYPE F F F U
COUNT 1 1 1 1
WIDTH 143
HEIGHT 1
VIEWPOINT 0 0 0 1 0 0 0
POINTS 143
DATA ascii
0.65823424 -0.10967357 0.059312791 11906501
0.6710186 -0.099448733 0.048014998 10458025
0.69660473 -0.099161521 0.034219012 8023430
0.65231514 -0.068778515 0.049754355 6838107
0.67167509 -0.080515929 0.039205272 7496819
0.64779729 -0.044036701 0.04602965 5522758
0.66922414 -0.052349258 0.030801356 4340044
0.64665997 -0.014478683 0.049351793 4799029
0.67060667 -0.0054677106 0.031096533 1905174
0.65256059 0.01250081 0.050626375 3746083
0.67326921 0.019185433 0.038070105 2694168
0.65971613 0.032891065 0.055511132 3680285
0.67363578 0.043173064 0.050545439 3614237
0.69589984 0.04543747 0.035863977 2233102
0.68688703 -0.12196222 0.071876064 12563913
0.69196194 -0.1231463 0.080642723 10458282
0.65936756 -0.091142684 0.065909714 7430244
0.67380643 -0.10677499 0.074950829 10327718
0.65117496 -0.072955213 0.075573653 6443858
0.66107267 -0.0857118 0.073263355 6969945
0.64299643 -0.042330366 0.075174548 4798771
0.64379859 -0.015230715 0.075204588 4469547
0.65089309 0.012024459 0.076059669 4140580
0.66283399 0.027457258 0.072939985 3613976
0.65713996 0.031270877 0.076793261 2890514
0.67288554 0.045825399 0.074551284 3285012
0.68576425 0.06234296 0.075230978 3613463
0.70416182 0.071697794 0.078794189 4204830
0.72310865 0.081576638 0.082798451 7627605
0.76582342 0.098634936 0.08923018 12297877
0.68676281 -0.12068292 0.10111466 14669025
0.69597012 -0.12496335 0.10114539 11577015
0.67586601 -0.104684 0.10534455 10460851
0.69360399 -0.11398645 0.11740425 15067636
0.65188015 -0.072042584 0.10473806 7299684
0.6618132 -0.086222462 0.10397258 6839393
0.64608455 -0.043878589 0.10572998 5391422
0.64504856 -0.016452156 0.10703363 4338476
0.65232748 0.011850233 0.10471376 3943717
0.66330546 0.02541052 0.10786668 3746593
0.65882087 0.030578561 0.10164754 2496276
0.67508101 0.045212161 0.10560399 3285016
0.69162738 0.054964162 0.11286061 4139293
0.68786991 0.0619817 0.10384673 3480340
0.70535851 0.069061413 0.10273955 4336419
0.73539162 0.081588328 0.099887565 5126716
0.76169872 0.084172904 0.11082775 3417112
0.76446587 0.10174263 0.10520623 4468514
0.67651552 -0.097794794 0.12912774 9211565
0.65538538 -0.070054702 0.13000461 7037030
0.66710389 -0.078216724 0.13857479 7893628
0.65104187 -0.043880545 0.1334136 4207149
0.6610691 -0.044790316 0.1441852 4996917
0.65172267 -0.014481517 0.13424468 3417886
0.66207993 -0.012100856 0.14099908 4009764
0.65530294 0.0085434364 0.13127115 3286300
0.66782469 0.018163905 0.13729981 2957592
0.67899811 0.042544045 0.13128714 3087382
0.70049232 0.051517859 0.13883753 3941659
0.72968489 0.058858585 0.14792095 3285017
0.70696729 0.063775554 0.12724626 4139552
0.73032802 0.061183266 0.14815101 3284248
0.76844245 0.083154701 0.12711418 2693650
0.78150988 0.083347715 0.13508052 3022621
0.77020323 0.1047766 0.13271891 3745823
0.78123105 0.095408067 0.14471087 3483423
0.77663314 0.12019556 0.14749072 4139559
0.68116367 -0.092514724 0.16380492 12039624
0.70800447 -0.10452919 0.17294705 8680317
0.73093146 -0.10901278 0.17787331 7431021
0.65817714 -0.062713578 0.15808144 6905442
0.67102444 -0.07645949 0.16528723 7169647
0.69731629 -0.087220713 0.17739499 8024436
0.6556161 -0.043920238 0.16463576 4273203
0.66609025 -0.045297083 0.16768371 5195072
0.65566164 -0.015553008 0.16556467 3746599
0.66783339 -0.012139415 0.16849408 4602416
0.65902764 0.001148229 0.16336249 3220512
0.67342496 0.016288429 0.16559926 3615010
0.69677758 0.023339691 0.17836946 4075816
0.68414015 0.034886222 0.16324002 3613982
0.70234966 0.044487052 0.16672236 3811362
0.72263098 0.047448575 0.16483426 3613471
0.77409309 0.11104853 0.16234252 4208445
0.78043205 0.11299081 0.16286552 9537412
0.77690655 0.12468246 0.1665711 3811879
0.78343332 0.12695171 0.16699131 4403760
0.70395666 -0.12599686 0.19451047 6577761
0.71075499 -0.10533997 0.19122343 4864564
0.735376 -0.099073887 0.18526837 9735060
0.68025601 -0.0715589 0.18131599 6775140
0.70440233 -0.070799544 0.18884978 6642779
0.73140955 -0.076429777 0.19316413 9537939
0.67837578 -0.044164486 0.18529485 5260864
0.70565695 -0.043969579 0.19762442 5655630
0.72819507 -0.051096521 0.20109186 9078415
0.67930287 -0.014601099 0.18572615 4273453
0.70507568 -0.013355919 0.19598688 3681576
0.7261945 -0.010811271 0.20270526 3681064
0.68206227 0.013113168 0.18275656 3747623
0.70696324 0.017471224 0.1911485 3944490
0.73214513 0.007660266 0.19768816 4537395
0.71094811 0.037317034 0.18875673 3549217
0.73247313 0.043787237 0.183956 3681579
0.76313734 0.055534277 0.19787398 6380138
0.76027298 0.066899188 0.19950911 6115149
0.75123191 0.1099785 0.18707383 16186366
0.77831781 0.13331363 0.18979836 4339255
0.78643501 0.13805221 0.19143878 5786186
0.79735792 0.15625051 0.19044733 2033680
0.69953215 -0.12437554 0.22512269 2566716
0.70031303 -0.11475372 0.22454192 1378825
0.71302879 -0.037590567 0.22668336 6050911
0.72192812 -0.040872317 0.22699422 8353922
0.71538234 -0.020912839 0.22510441 2693911
0.72298497 -0.020200172 0.22821617 3088158
0.74857968 0.049853738 0.23183393 4142908
0.75323486 0.053219169 0.22690749 2037796
0.74830723 0.063351274 0.22844221 787719
0.7539224 0.065844126 0.22350693 984584
0.69785547 -0.12094228 0.24263041 6185850
0.70052034 -0.1055665 0.25566092 2169379
0.70283794 -0.087788895 0.26782352 2296839
0.73140895 -0.030170131 0.24006233 4668474
0.74027103 0.029059827 0.26448128 6380633
0.7431863 0.047120038 0.25728238 1116429
0.75169307 0.053866416 0.24371684 854029
0.74532688 0.060791828 0.24399459 722183
0.75409728 0.0603057 0.24406755 985609
0.70527947 -0.094152793 0.27991769 3289151
0.70711797 -0.076121092 0.28718463 2959146
0.72393852 -0.073909864 0.29950172 4280934
0.71029341 -0.050295267 0.29160938 4206376
0.71718979 -0.015218748 0.29375112 6114885
0.72312003 -0.008026666 0.29293117 2891292
0.73035359 0.016242338 0.28601643 2694687
0.73683256 0.036093459 0.27576715 919562
0.70481205 -0.064883433 0.30049616 395556
0.72314274 -0.065006182 0.30079508 3556947
0.71158069 -0.045383673 0.30234692 788492
0.72522825 -0.040683974 0.3064813 2500912
0.71588367 -0.016314967 0.30450299 656906
0.7232812 -0.015965996 0.30179358 1182735
