# .PCD v0.7 - Point Cloud Data file format
VERSION 0.7
FIELDS x y z rgb
SIZE 4 4 4 4
TYPE F F F U
COUNT 1 1 1 1
WIDTH 119
HEIGHT 1
VIEWPOINT 0 0 0 1 0 0 0
POINTS 119
DATA ascii
0.67885441 -0.070760503 0.017610539 6839925
0.64311409 -0.042868897 0.025955606 3747381
0.66714066 -0.043233693 0.017038794 3155248
0.64013618 -0.023840584 0.028510204 2957601
0.66436088 -0.011529367 0.01786349 2102807
0.67047554 0.017579544 0.019053388 2299669
0.68293071 0.040998206 0.020125045 2036495
0.6914444 0.053165235 0.020773292 1838346
0.7100392 0.069637746 0.015105888 3613725
0.73833609 0.082043618 0.014748767 4206119
0.74392402 0.093921222 0.013637925 5653308
0.75544691 0.096480146 0.016423211 5654335
0.6591512 -0.091314957 0.057753209 8286850
0.66389382 -0.095741197 0.049466696 11249335
0.650123 -0.072899908 0.04632207 7233384
0.66022307 -0.084648602 0.03687638 10522545
0.64005488 -0.046474058 0.046458583 5785925
0.63735956 -0.015223481 0.046613578 5259066
0.64079922 0.013786636 0.046643037 3943719
0.6531139 0.040307943 0.047291879 3614497
0.66263211 0.055769768 0.05432269 3548702
0.67159432 0.066794224 0.054806832 3811354
0.65834379 -0.090298772 0.074719481 7299442
0.66948193 -0.1020145 0.074815333 11050675
0.64897186 -0.07463403 0.075919516 6378069
0.63833988 -0.047124688 0.076491781 5061430
0.63575161 -0.014326772 0.077059843 4337705
0.6398775 0.016027633 0.074430004 4009255
0.65228456 0.042008918 0.074241877 3417117
0.66317981 0.053997014 0.071804248 3548444
0.67587185 0.068503343 0.07410007 3811103
0.69447488 0.079829141 0.077529848 4467748
0.71167064 0.090459704 0.079919755 5980217
0.70638466 -0.12251651 0.10233702 11642032
0.65890121 -0.090360671 0.094343677 6448247
0.67406368 -0.10052422 0.10472029 11644096
0.695454 -0.11287172 0.10695725 11445428
0.65157986 -0.073043488 0.10626734 7168617
0.66220474 -0.087203033 0.10590547 6575972
0.64010215 -0.043920781 0.10602579 4535859
0.63865978 -0.013199583 0.10551865 3286046
0.64347845 0.015533107 0.10457835 3549218
0.65390033 0.040580772 0.10112911 2825755
0.66605091 0.052138448 0.10727234 3219483
0.68002087 0.066694349 0.10430139 4270883
0.70054895 0.078234568 0.10742447 5585460
0.67253017 -0.095978081 0.12284287 12829401
0.69635868 -0.10938951 0.12573254 11840184
0.65531856 -0.067685395 0.13028406 7563894
0.66549683 -0.076417699 0.13631378 7563902
0.64907926 -0.043548115 0.13560362 4931389
0.66105551 -0.057636287 0.14619708 7495270
0.64711124 -0.014260403 0.13694093 3746083
0.65142673 0.014896342 0.13367966 3549216
0.66180611 0.026314944 0.14098412 3614750
0.65723735 0.035364591 0.12850967 2300182
0.67338848 0.045846224 0.13592897 3153433
0.69357693 0.057720181 0.14472622 3678232
0.68381643 0.062233735 0.12611961 4795432
0.70558262 0.067980424 0.13614279 4335135
0.85421044 -0.1201527 0.1765238 13678789
0.68421346 -0.092763901 0.16797525 11246250
0.70524991 -0.096535712 0.17191592 12036535
0.72930861 -0.10057018 0.17604953 8221310
0.85249734 -0.10614767 0.16581114 8418173
0.65816325 -0.061770499 0.15972894 6312534
0.67300075 -0.072520241 0.16711883 7892863
0.69990647 -0.07931672 0.17751718 9469838
0.73985183 -0.086607322 0.17831805 9337475
0.6523453 -0.041263688 0.16184916 5259583
0.66842425 -0.04708045 0.17286095 6509911
0.79102385 -0.05968285 0.1772109 6772831
0.6523959 -0.015028944 0.16231562 4338738
0.67034584 -0.016927801 0.17724045 4865082
0.6515274 0.016782211 0.16596743 3286563
0.66790766 0.014366613 0.17065141 4207408
0.64797932 0.037046544 0.17322885 4074276
0.67630774 0.044459533 0.15771744 3877670
0.86310691 -0.12234166 0.18980652 12496822
0.86277884 -0.11146439 0.18982442 6576736
0.87185889 -0.11699417 0.19725806 1182506
0.70898271 -0.071507581 0.18440858 8747908
0.73379064 -0.071026415 0.19016457 8220535
0.80260867 -0.075466804 0.19311661 5260877
0.81480193 -0.065465242 0.19510089 1769990
0.68220335 -0.04444892 0.18187214 6510682
0.70438963 -0.046178073 0.1907344 7892086
0.73214263 -0.057474118 0.19191171 8680575
0.79556906 -0.059877906 0.18277913 5586251
0.6799596 -0.015778806 0.18291372 4207922
0.70537579 -0.016639831 0.19611862 3944240
0.72409314 -0.0045472309 0.20300141 3615012
0.63891345 0.023792522 0.19539912 2694948
0.68133849 0.010362041 0.18180344 4536369
0.70416528 0.0090921577 0.19144717 4667440
0.72137088 0.0096390173 0.19673258 4534317
0.64311266 0.037017256 0.1924389 2956826
0.79368591 -0.074595667 0.22195578 2367528
0.71145558 -0.034172133 0.21827061 8880015
0.71077538 -0.016665528 0.22270821 3484460
0.72453868 -0.02139328 0.23395196 5588303
0.64033157 0.020997318 0.22430386 2695721
0.64634007 0.035484631 0.22480536 2167826
0.77306086 -0.071354039 0.25796708 3157055
0.78178978 -0.071042597 0.24331009 1644320
0.76652688 -0.057176974 0.26209068 853515
0.78798211 -0.059042271 0.24409835 1575949
0.64986509 0.015784511 0.25430089 4010035
0.66105151 0.021202641 0.26160532 4996143
0.65071267 0.031444065 0.24283075 3946016
0.75741714 -0.062650986 0.27674529 3092035
0.74819237 -0.057973046 0.28427806 3816268
0.75441486 -0.054282606 0.27482203 1051158
0.65744543 -0.003211705 0.27541831 3617338
0.68140608 -0.011901675 0.28814366 4274240
0.69679207 -0.017187169 0.2961731 3353915
0.65981001 0.0040141828 0.27459008 2498333
0.67452985 0.0048502651 0.28370389 3352873
0.70139503 -0.016265146 0.30014879 3094850
