# .PCD v0.7 - Point Cloud Data file format
VERSION 0.7
FIELDS x y z rgb
SIZE 4 4 4 4
TYPE F F F U
COUNT 1 1 1 1
WIDTH 131
HEIGHT 1
VIEWPOINT 0 0 0 1 0 0 0
POINTS 131
DATA ascii
0.70328474 -0.12279084 0.013418868 11708624
0.73002881 -0.12595204 0.01364848 11512020
0.68300354 -0.098758355 0.021239202 7761801
0.69518352 -0.10693852 0.014377107 10985930
0.67310625 -0.075048327 0.018691039 5326423
0.66782486 -0.043841891 0.019124601 2957347
0.67416072 -0.011871322 0.018712936 3023135
0.68234181 0.0079940557 0.021691114 2759963
0.69672751 0.016545393 0.016202191 2891291
0.70489973 0.047899388 0.014363406 5127479
0.73287642 0.051001567 0.01994035 3942946
0.70430756 0.065986149 0.014423045 6180682
0.73587459 0.064532168 0.018814936 5455927
0.76036924 0.066986784 0.022068508 5456443
0.67008787 -0.12278426 0.053941268 9735077
0.65350389 -0.099068202 0.050480582 7167592
0.67498475 -0.10754772 0.040738333 7694197
0.64540762 -0.075580776 0.046760492 6049102
0.64324188 -0.046051648 0.045626733 4535857
0.64583969 -0.016849522 0.047901072 3680290
0.6537627 0.010419065 0.05157334 3351065
0.66861868 0.015494081 0.047055561 3154200
0.67829752 0.040373843 0.055945717 3746077
0.6951201 0.046417583 0.044313125 4008220
0.72218257 0.068467714 0.053338945 6311749
0.67315674 -0.12545244 0.078353576 9999015
0.65302247 -0.10096677 0.072355114 6378843
0.66297257 -0.11311992 0.078841455 7168104
0.6424396 -0.074507803 0.075352013 5391426
0.63881618 -0.044618558 0.074425749 4338218
0.64145434 -0.017612351 0.073837332 4075045
0.65425199 0.012488368 0.073716767 3614493
0.66400951 0.024117913 0.072591007 3351320
0.67733771 0.040148042 0.073053584 3351062
0.69692296 0.053938199 0.078157336 3350037
0.71036929 0.064506523 0.076014049 5389619
0.67238051 -0.12341871 0.10568511 11052732
0.65332764 -0.10079353 0.10171988 6379878
0.66665554 -0.11284222 0.10890573 6840948
0.64466375 -0.076046497 0.10315759 5194563
0.63954461 -0.046141908 0.10378602 3154718
0.64417881 -0.01433676 0.10309445 3746594
0.65371883 0.0090662846 0.10284116 3812387
0.66480446 0.021621393 0.10531698 3680542
0.6800139 0.038963404 0.10363321 3745822
0.70029813 0.052219618 0.10379674 4008737
0.70606142 0.061944842 0.095704004 4335907
0.67528498 -0.12238567 0.12959757 10855114
0.65640622 -0.096994393 0.13033083 6446963
0.6683746 -0.1042627 0.13549116 7763080
0.65172684 -0.075540058 0.13319348 5984337
0.66224116 -0.083232127 0.14081237 7366248
0.64798963 -0.045121323 0.13343015 3286558
0.65142745 -0.015172524 0.13314094 3154970
0.66196746 -0.0047660163 0.14392786 3022868
0.65804589 0.0048709828 0.1295701 2957851
0.67332333 0.017278379 0.13758792 2627859
0.6912151 0.027726093 0.14753734 3218711
0.68382806 0.034546729 0.13072161 3285015
0.70474517 0.043667778 0.13550581 3547161
0.73547393 0.049204629 0.14692971 3808797
0.65810698 -0.10569331 0.17426682 7102313
0.67009676 -0.10065729 0.16627517 6774119
0.65617031 -0.07340876 0.16517395 4931391
0.668661 -0.077520654 0.17075437 5786958
0.65231323 -0.044369545 0.16558504 3747367
0.66755152 -0.0446922 0.17723532 5063227
0.65645975 -0.018876793 0.16481063 3615268
0.66824269 -0.0092379767 0.17053837 3944489
0.67818123 0.0125833 0.16513674 3417374
0.70007294 0.023629716 0.17293036 4075304
0.70588893 0.034831107 0.16227081 3876643
0.72793406 0.040666297 0.17735174 6508357
0.84792989 0.049075887 0.16649432 3877675
0.65691864 -0.12264211 0.19581731 9342103
0.65017325 -0.10898455 0.19568069 3485240
0.68325263 -0.094079137 0.18118981 9011600
0.70523977 -0.096828341 0.18711101 9406352
0.73039711 -0.094113827 0.19298974 9537167
0.67876804 -0.071885921 0.18428214 5919059
0.70588183 -0.07738997 0.19358264 7958651
0.73277777 -0.075987957 0.19948015 8945287
0.68037677 -0.043432415 0.18698089 4339505
0.70518619 -0.045494456 0.19994813 4143161
0.72283673 -0.03402885 0.20492002 2299153
0.67719465 -0.01534868 0.18330362 4273453
0.70411861 -0.015708562 0.19451603 4338731
0.73055667 -0.012231639 0.19978285 3812648
0.68290704 0.0069148224 0.18177776 4208434
0.70625079 0.010830252 0.18597084 4470317
0.73594469 0.013516116 0.19364643 3878442
0.75371331 0.020124791 0.19465415 4272686
0.80577123 0.012602585 0.20202672 7496812
0.81084794 0.0041118111 0.20638132 9143965
0.73717058 0.037781645 0.18276413 5127220
0.76356167 0.036267005 0.18421093 4865850
0.85902238 0.052649166 0.1935052 5853019
0.86193633 0.064028606 0.19936737 3877669
0.6573388 -0.12129603 0.21409994 6052969
0.66001326 -0.12449804 0.21587488 11316923
0.65251446 -0.10629413 0.22385712 3354431
0.66419297 -0.11490679 0.2327517 2958920
0.71176064 -0.062400732 0.22264835 9537430
0.72174382 -0.060085244 0.21040949 7958661
0.71219152 -0.04639117 0.22599983 3418929
0.72403145 -0.038743645 0.22894259 3484198
0.71867144 -0.02770436 0.23080686 4205092
0.72532076 -0.024067974 0.22972298 6244934
0.79285324 -0.00078540936 0.22958681 4274500
0.79603982 0.012510356 0.22394037 2431774
0.65719849 -0.099673994 0.25071102 4276830
0.66640168 -0.10513362 0.25675657 6185087
0.6651144 -0.087853029 0.25997531 2232847
0.71967703 -0.04759074 0.24517067 5852497
0.72497422 -0.044319369 0.24146195 4404541
0.77286017 -0.0090893749 0.2647849 2563621
0.78424692 -0.0029801039 0.2490733 2301226
0.77791858 0.0032239659 0.26478672 919560
0.78868002 0.0088962913 0.25076023 919562
0.68102348 -0.095221251 0.28300697 6311504
0.68035251 -0.082469352 0.28393489 3224635
0.69750613 -0.075540818 0.29483229 2830908
0.73082566 -0.035594933 0.29914507 853767
0.744367 -0.023384389 0.29362512 1576975
0.76260197 -0.013040178 0.27933156 1247759
0.77520299 0.0024007568 0.27253985 853511
0.78051364 0.0029553724 0.27459705 1181712
0.70898443 -0.068664752 0.30371985 3358791
0.71092057 -0.057366997 0.30528596 2828331
0.7314074 -0.041491397 0.30449322 2103842
0.73971623 -0.024897363 0.30145261 1248269
