# .PCD v0.7 - Point Cloud Data file format
VERSION 0.7
FIELDS x y z rgb
SIZE 4 4 4 4
TYPE F F F U
COUNT 1 1 1 1
WIDTH 106
HEIGHT 1
VIEWPOINT 0 0 0 1 0 0 0
POINTS 106
DATA ascii
0.6595937 -0.12671094 0.025383398 11444923
0.66826159 -0.12692758 0.024547592 9404566
0.69291329 -0.12287012 0.013846703 7891070
0.6499024 -0.10591473 0.026199145 7561578
0.67499906 -0.10773788 0.021089081 6838884
0.6241712 -0.072482929 0.029505968 5588304
0.63868999 -0.075078212 0.019862808 5127999
0.62864399 -0.053155482 0.022942811 5390909
0.63487637 -0.04554842 0.019692715 3943723
0.64097691 -0.015389453 0.019600401 2496277
0.66587019 -0.010292879 0.016632246 1839117
0.64792079 0.011843175 0.025789374 2758673
0.67449284 0.014267787 0.016397925 1970445
0.65889657 0.032441139 0.02631408 3218711
0.66935712 0.040498361 0.024807997 3153429
0.65813547 -0.12352425 0.044238489 10393257
0.67374808 -0.13572918 0.044503447 11247023
0.64635056 -0.10414482 0.044257954 6969695
0.62925398 -0.068339445 0.046062451 4404531
0.63359642 -0.07529068 0.043339252 5982794
0.62782443 -0.045713771 0.04495497 5127480
0.63156688 -0.045898244 0.043516375 5390396
0.62884581 -0.022106526 0.044209469 4601135
0.63472378 -0.013164495 0.043260567 4535343
0.64598244 0.013281851 0.043600842 3416603
0.6564514 0.032777805 0.045796603 3153429
0.67321825 0.045275513 0.046303418 3481621
0.69219708 0.059116907 0.051447619 3087126
0.69492614 0.061228205 0.051755823 4138268
0.65764976 -0.12379728 0.070324689 12368846
0.67242986 -0.13277833 0.074420907 11642034
0.64669204 -0.10413148 0.073920429 7102569
0.66228092 -0.11925114 0.079836756 7956337
0.62938488 -0.067205325 0.070773169 3549221
0.63540083 -0.076954313 0.074244119 5917002
0.62818205 -0.04571237 0.072980136 3022877
0.63132495 -0.046160445 0.074698657 4337451
0.62891328 -0.023238575 0.073208526 2891802
0.63597262 -0.011169326 0.074594706 3812132
0.6471436 0.014189364 0.074475497 3154460
0.65892226 0.031342406 0.071418777 3285013
0.6755079 0.044798579 0.074237823 3547415
0.69269848 0.0558757 0.07436388 3875610
0.6997183 0.061362568 0.07377319 4203550
0.66947436 -0.12224124 0.10148013 10525114
0.65137833 -0.10209829 0.10417917 7563902
0.66361606 -0.11316536 0.10830856 7958407
0.63940758 -0.075764418 0.10469739 6312274
0.62817419 -0.047148783 0.095375381 2627863
0.63635421 -0.044410855 0.10750339 3417375
0.64082778 -0.01375059 0.10515317 3483424
0.65218723 0.012499515 0.10353263 2562839
0.66503006 0.024913561 0.11035584 2693396
0.67703205 0.039246578 0.10348289 3744282
0.69647855 0.05137771 0.10127932 4862506
0.65725434 -0.096500143 0.13109007 7761279
0.66450661 -0.10212012 0.13426578 9011354
0.64945227 -0.07795129 0.13460745 6312789
0.62829208 -0.046374004 0.14675494 3220001
0.64104182 -0.047094177 0.13396482 3943977
0.64921594 -0.01506686 0.13320622 3812131
0.65767145 0.0045690131 0.1317053 3154202
0.67184252 0.018120782 0.13425137 3285019
0.68469059 0.033613093 0.12864244 3349269
0.70106733 0.042409234 0.12474392 3282963
0.70865911 -0.12745826 0.1552709 10391971
0.72994864 -0.1275121 0.16182849 8089218
0.65741503 -0.094262272 0.15650797 6643055
0.67656767 -0.10292315 0.15554141 9404822
0.70551831 -0.10657334 0.16342816 9272969
0.7276206 -0.10925832 0.16505229 9338245
0.65097851 -0.077146888 0.15414354 5259849
0.67584026 -0.077186219 0.16210535 7496809
0.70214516 -0.07785552 0.17375046 8483966
0.73049974 -0.086502731 0.177766 8812671
0.62181479 -0.047698058 0.1688296 3286307
0.64028645 -0.040359076 0.1553506 4010025
0.66737175 -0.0323282 0.16212536 5128494
0.6994611 -0.030206867 0.17633165 3878434
0.65195024 -0.017324066 0.15391269 3549221
0.67500865 -0.017527176 0.16391878 5061684
0.70305741 -0.01326816 0.17357603 4929841
0.72436327 -0.0073664952 0.17804986 5259315
0.65713954 0.0030830808 0.15107821 2892059
0.67551732 0.012319617 0.15619382 3877669
0.70592499 0.013193815 0.16602255 4798256
0.72693503 0.016085811 0.16883647 4929588
0.68512088 0.031469148 0.15155385 5060913
0.70485836 0.034352835 0.15688112 4139044
0.73110473 0.035754479 0.16093169 4929333
0.75662661 0.032861203 0.16479443 5653316
0.61473709 -0.060195092 0.18712553 5525084
0.71878415 -0.070123672 0.18279517 8548988
0.62122434 -0.047600951 0.19410311 2168340
0.70556289 -0.020713797 0.18075328 4338480
0.72405094 -0.020408936 0.18411016 5061172
0.62841207 -0.061927613 0.21246751 9934250
0.62744713 -0.04718557 0.2219546 3352354
0.63255185 -0.048286315 0.22816092 3878184
0.64039099 -0.061261136 0.24268663 6251377
0.66683257 -0.06040661 0.26739597 7958649
0.64851207 -0.051006127 0.25272852 5325626
0.66748655 -0.049775481 0.26797593 3746088
0.67468411 -0.060672432 0.27605742 1904412
0.67741573 -0.052777171 0.27447191 2697519
0.70091397 -0.050338238 0.28266144 3487039
