# .PCD v0.7 - Point Cloud Data file format
VERSION 0.7
FIELDS x y z rgb
SIZE 4 4 4 4
TYPE F F F U
COUNT 1 1 1 1
WIDTH 136
HEIGHT 1
VIEWPOINT 0 0 0 1 0 0 0
POINTS 136
DATA ascii
0.70464104 -0.070717603 0.014430664 8745348
0.72619969 -0.086163275 0.011669748 13947123
0.65566939 -0.040954955 0.022306658 6706266
0.68390608 -0.040959004 0.015149439 6837850
0.69214314 -0.05840566 0.010912225 8088186
0.6479333 -0.016929103 0.022976466 5719620
0.67892796 -0.028218944 0.011347882 6442831
0.64518619 0.013887535 0.021423105 3877930
0.65215987 0.044918172 0.020826187 2890776
0.65840256 0.062567003 0.023474015 3022617
0.66941547 0.074737765 0.021513565 2758931
0.68164033 0.092918545 0.028872654 3612438
0.74118072 -0.12459907 0.054762185 13484233
0.69899189 -0.090896562 0.057847828 10918055
0.73429722 -0.11191816 0.054988582 10523033
0.6724757 -0.071053758 0.047967859 9669533
0.6905902 -0.085049711 0.058639653 13419740
0.65324616 -0.041931916 0.046128806 6772311
0.66213071 -0.05685987 0.045350466 7298916
0.64438456 -0.015356584 0.044681903 5917253
0.64131224 0.01572391 0.046855897 4930358
0.64902508 0.047981683 0.044349927 4140841
0.65708882 0.066363096 0.046827007 3219224
0.66791344 0.079142578 0.042195555 3351320
0.68336922 0.095802777 0.044479191 3745049
0.69109416 0.10388106 0.050259348 4665384
0.73448467 -0.12746976 0.075509824 9338498
0.70651895 -0.09341751 0.074264258 11772070
0.7303158 -0.10700373 0.076614641 5719107
0.67587733 -0.071909316 0.073930234 9735585
0.69608057 -0.086651251 0.079628333 12694467
0.65280753 -0.040699363 0.074557528 6049620
0.66222578 -0.055187374 0.076607339 6510946
0.6456064 -0.016109049 0.076752581 4207152
0.64166611 0.01400295 0.072219364 3023389
0.64986384 0.048063993 0.071898863 3417631
0.65783745 0.065680914 0.07048887 2562067
0.66904598 0.077957079 0.074726067 3219223
0.68355656 0.094496235 0.073987409 3678744
0.69750267 0.10185303 0.078076817 4665126
0.73887247 -0.13405077 0.10715935 6773082
0.71220505 -0.091924086 0.10023364 7757918
0.74231058 -0.11018717 0.10123862 3680806
0.75342572 -0.10223594 0.10492366 1840146
0.67787874 -0.067857005 0.10165247 11381958
0.70555979 -0.084617801 0.1017888 13022911
0.72366911 -0.088653654 0.11602581 4733772
0.65616155 -0.03977995 0.10008222 7431274
0.66595662 -0.04865884 0.10829793 8287622
0.65003574 -0.015152914 0.10454283 4010030
0.66233075 -0.026423605 0.11870734 6313302
0.64867502 0.016517993 0.10670547 3286044
0.65384161 0.044306096 0.10164547 3286301
0.662507 0.051909763 0.11249477 3549218
0.65853739 0.062500507 0.092982374 1970959
0.67477274 0.075499043 0.10462663 3021591
0.68302929 0.092890643 0.090411067 3677462
0.69569975 0.095762514 0.097249128 4335904
0.74073666 -0.15957534 0.13635044 9339011
0.741575 -0.14018093 0.12970062 4272690
0.68399912 -0.060137123 0.14300919 12894416
0.70341885 -0.070980139 0.13243225 11115683
0.73061764 -0.086626649 0.12326336 6115425
0.67368329 -0.045476414 0.13499409 8353669
0.65790325 -0.013082714 0.13421695 4339251
0.66179258 -0.01757084 0.13642105 5457477
0.65706879 0.015393981 0.1344282 3878182
0.66123033 0.025285972 0.135691 4010281
0.65929592 0.042393222 0.12158535 3483679
0.6688447 0.048067436 0.13481303 3483425
0.68122864 0.067925014 0.13521683 3613727
0.70170015 0.081852578 0.12818946 3742998
0.71874887 0.092322223 0.14179178 2034441
0.74134851 -0.18280983 0.15721749 12825523
0.75235248 -0.18661186 0.16220371 9080738
0.74298942 -0.16913745 0.15936835 5785936
0.73194265 -0.095274679 0.17304212 4997704
0.68813175 -0.061722364 0.15378945 10587309
0.70792902 -0.066058859 0.15551731 10787234
0.73558086 -0.075480647 0.16602431 6444119
0.67997301 -0.04160282 0.15575758 6971500
0.70564991 -0.045667667 0.16230068 8551047
0.72900438 -0.047526214 0.16846491 7431266
0.7624858 -0.040798403 0.1734073 6642529
0.65580809 -0.0080331732 0.15165767 3943465
0.67557126 -0.014175025 0.15877698 5260612
0.70365518 -0.016851285 0.17150213 5590093
0.72508687 -0.022672601 0.1768606 5786955
0.65650737 0.016484644 0.15128683 3812132
0.67520368 0.016726736 0.15978214 4339505
0.70061487 0.015985934 0.17245089 3615526
0.67816538 0.044497639 0.1577426 3944492
0.7053529 0.045174554 0.1669089 4141613
0.73133808 0.044913627 0.17408372 4930871
0.68388146 0.068647355 0.15192559 4205347
0.70597547 0.071609713 0.15790153 4141100
0.73019701 0.077450819 0.1631151 5194044
0.71959752 0.1067091 0.17974821 722435
0.72859257 0.098124318 0.16435844 5655120
0.72760135 -0.096916951 0.19127142 5130323
0.72798711 -0.083464183 0.19569395 3417891
0.71761376 -0.0082992008 0.2016384 5918807
0.72681117 -0.010852127 0.18989937 6379613
0.71694636 0.011392082 0.19499773 2562326
0.72566319 0.017820546 0.19131826 4272682
0.732288 0.03396754 0.18210694 4995638
0.71835256 0.087270655 0.2035467 2564394
0.720002 0.089870445 0.19849825 393226
0.71780795 0.10071318 0.19732805 1577494
0.72290647 0.10038521 0.19200662 3484975
0.72530401 -0.091448605 0.21979976 3092034
0.72371995 -0.077747658 0.22651155 1117203
0.71907538 -0.0028272038 0.21159869 3221291
0.72286141 -0.0073896749 0.21319416 4666426
0.71804786 0.010317521 0.21129932 2563611
0.72620624 0.014959187 0.21325405 3482399
0.71481359 0.083365902 0.22790387 1379859
0.71706611 0.097513936 0.21876459 1247499
0.72132283 0.10554703 0.21221291 9075323
0.71901816 -0.066376515 0.2480628 722962
0.72144765 -0.066864029 0.24901211 854800
0.71788269 -0.048977513 0.2595048 2234134
0.7213378 -0.051033944 0.25487328 1970189
0.71450615 -0.020812355 0.26756361 4995632
0.71026963 0.012807928 0.2659829 9009007
0.71127582 0.048862342 0.26296371 2103064
0.7132982 0.072621062 0.25148275 854027
0.7354244 0.071143791 0.2592369 721162
0.71566141 -0.034346811 0.2753405 526094
0.72419846 -0.047870781 0.27077162 460577
0.71524787 -0.017347401 0.27724081 1116684
0.72238785 -0.0031298762 0.28503889 2762794
0.71165264 0.014816012 0.27651277 1642769
0.72955179 0.0082567371 0.2883251 1716032
0.71256542 0.041260354 0.27336287 722443
0.72363412 0.040361486 0.27718255 1051406
