# .PCD v0.7 - Point Cloud Data file format
VERSION 0.7
FIELDS x y z rgb
SIZE 4 4 4 4
TYPE F F F U
COUNT 1 1 1 1
WIDTH 104
HEIGHT 1
VIEWPOINT 0 0 0 1 0 0 0
POINTS 104
DATA ascii
0.71115917 -0.10735795 0.057426061 10392217
0.73804098 -0.10224213 0.040877204 9998760
0.70548362 -0.071844175 0.04662757 6050913
0.72589743 -0.081409477 0.040328957 6314087
0.68524367 -0.044762645 0.058813591 7102825
0.70828116 -0.048516713 0.040358245 3945790
0.68776011 -0.015877994 0.056825865 4734274
0.6986044 -0.013853765 0.045575481 2497824
0.70648265 0.012606114 0.046617344 2037009
0.72893459 0.015359122 0.036748867 2102801
0.7414884 0.035188597 0.037406348 2101774
0.79342687 0.070759043 0.031171821 4404522
0.73455352 -0.12905537 0.076702394 11050924
0.75264454 -0.1415894 0.084028713 11577259
0.70721769 -0.10252836 0.074531637 8221818
0.72082299 -0.11920613 0.074843235 12170943
0.68207937 -0.067839213 0.076668046 6115667
0.6936093 -0.079540253 0.072523162 7102821
0.65672141 -0.047115188 0.081898279 5392461
0.6741026 -0.04766582 0.071128197 5786958
0.65733963 -0.026777521 0.088805437 3287333
0.67902571 -0.017849734 0.076647647 4931127
0.69084167 -0.0059599285 0.06900201 5457986
0.68939441 0.00034528738 0.0872114 1905935
0.69810605 0.014629348 0.073987059 3681315
0.71097332 0.036368839 0.077484757 3154969
0.72444493 0.051647697 0.080547012 3614234
0.73562962 -0.13032156 0.10199734 11642797
0.70597064 -0.10158695 0.10516115 6841193
0.72190386 -0.11827629 0.10626954 11512755
0.65288317 -0.064116195 0.099260367 8748418
0.68873072 -0.072349682 0.10041718 6642522
0.69354761 -0.079150066 0.10689437 6115918
0.64385098 -0.045817062 0.1053022 5524040
0.68810177 -0.059863586 0.11483327 14673644
0.64982474 -0.027722925 0.1030563 3483939
0.68278742 -0.012478052 0.10459672 2234385
0.6913588 -0.0079328362 0.1075827 2695192
0.68963486 0.00023566745 0.097810015 1840144
0.69845563 0.014673994 0.10602263 2629656
0.71274734 0.037178203 0.10540618 2168850
0.72925937 0.052363452 0.10699558 3351065
0.74200785 0.062992886 0.10482773 3153942
0.75623196 0.069373764 0.10239559 4139816
0.73954111 -0.12682813 0.1279822 12039358
0.71017659 -0.099959239 0.13364442 8356760
0.7252484 -0.11533952 0.13016981 12238285
0.68930477 -0.068241015 0.12863895 4470845
0.69738597 -0.076117337 0.13517474 5721679
0.62493044 -0.046587586 0.13829403 7564138
0.63283563 -0.042021219 0.12600484 5391428
0.63630003 -0.027825329 0.13036746 3878438
0.68861282 -0.023360971 0.13596578 2431507
0.69385791 -0.013789321 0.13762884 2695447
0.70499909 0.016326837 0.1330464 2498070
0.71657002 0.034431361 0.13292167 2168850
0.73441947 0.04857789 0.13639294 3416343
0.7474696 0.063085064 0.12783569 3219229
0.75871468 0.064017236 0.13403617 3482905
0.71602434 -0.093414702 0.16408075 11119807
0.72616804 -0.10125007 0.16800472 13289425
0.70626038 -0.074911483 0.16527574 5985880
0.58799636 -0.048200797 0.17220898 6314847
0.61121011 -0.046498645 0.16297616 6181971
0.68961048 -0.042061809 0.17834926 2892845
0.69807762 -0.043447226 0.16629693 3288102
0.7014069 -0.018180475 0.16561033 2958621
0.71309072 0.0090305768 0.1652105 2695193
0.72297579 0.023016434 0.16683359 2694679
0.73796773 0.038510118 0.16102579 3153943
0.7599628 0.051888961 0.15837663 2890258
0.71622682 -0.091357663 0.18183491 7038574
0.73089802 -0.099678442 0.18631324 10064033
0.7535333 -0.10089922 0.1948851 8419192
0.71279061 -0.070808358 0.18956782 6052448
0.72616154 -0.075628445 0.19881596 6051933
0.61064672 -0.04531138 0.18415321 4142898
0.6778881 -0.042613406 0.19599347 2761764
0.70938778 -0.05835475 0.18711349 4801342
0.7315166 -0.057716444 0.19940488 3286051
0.6787526 -0.028328275 0.20470975 2366739
0.70926428 -0.015528375 0.18690383 3221538
0.73281997 -0.012492662 0.19889441 3813672
0.75411105 -0.006471368 0.20497613 3748649
0.71348888 0.008665625 0.18441486 2563610
0.7347753 0.015690109 0.19201964 3945260
0.76536512 0.014394329 0.20209558 4274225
0.73835087 0.036604971 0.18485413 3877666
0.75862348 0.038299464 0.19113344 4077100
0.72551924 -0.07277891 0.21247537 4734277
0.67590535 -0.044967297 0.22755431 3026227
0.67900121 -0.028842945 0.21833611 1446923
0.75862449 -0.013041438 0.21116486 3287841
0.68237936 -0.041958794 0.25398955 2566701
0.69155842 -0.042191438 0.26645839 2962484
0.68518782 -0.028958915 0.24832417 1249292
0.69369411 -0.028991558 0.26571208 1445392
0.70304948 -0.040549334 0.28578693 2502709
0.7209363 -0.041618034 0.29916722 1318691
0.7013064 -0.029021425 0.28139728 1248793
0.71836329 -0.041531134 0.30201244 2436661
0.7325061 -0.039347824 0.30847415 2437433
0.75144154 -0.034659378 0.31432879 2637637
0.72898614 -0.028947774 0.30416331 1516321
