# .PCD v0.7 - Point Cloud Data file format
VERSION 0.7
FIELDS x y z rgb
SIZE 4 4 4 4
TYPE F F F U
COUNT 1 1 1 1
WIDTH 140
HEIGHT 1
VIEWPOINT 0 0 0 1 0 0 0
POINTS 140
DATA ascii
0.70752209 -0.067725003 0.035802633 8617098
0.65564275 -0.036072873 0.057064503 6181971
0.67331374 -0.042455662 0.048146773 6446178
0.69199371 -0.041606914 0.03326904 6051679
0.65729135 -0.016222693 0.051776286 5589834
0.68376738 -0.016731082 0.033730153 4406080
0.6913228 -0.020685688 0.033159673 6313817
0.65555388 0.010367588 0.052968711 4339764
0.68538839 0.015584025 0.036690377 3221286
0.65930885 0.033364691 0.057936758 3747622
0.67325741 0.040159807 0.04873703 2957850
0.69418401 0.045063522 0.034349766 2234131
0.67719704 0.06401258 0.056757204 3287070
0.70159054 0.074688807 0.046346653 2759443
0.71010303 0.096252345 0.059580222 3677200
0.74918854 0.10099359 0.03050071 4272936
0.79036319 0.1189014 0.032427482 5852994
0.79608649 0.12657234 0.03074044 6115913
0.69308156 -0.12303561 0.084283762 12235186
0.68735635 -0.10384604 0.084885612 6905949
0.6946187 -0.091201127 0.076557845 9271369
0.67460608 -0.071088754 0.07806538 6576989
0.65752792 -0.039451305 0.07472147 6182228
0.66503215 -0.049898442 0.076337449 6445145
0.65425658 -0.015233945 0.074117638 5260607
0.65458691 0.013964179 0.073366746 4734260
0.66062367 0.028143216 0.067803085 4602419
0.65782344 0.032972459 0.074287347 4010536
0.66615796 0.047531877 0.074907377 3681571
0.68224609 0.07294023 0.074540883 3089174
0.69596404 0.084995158 0.075656496 3088403
0.70932943 0.09633825 0.076868303 3745561
0.68388873 -0.12743799 0.107562 8749188
0.69002068 -0.13641828 0.1163418 11249315
0.68484825 -0.10584539 0.10548344 4800569
0.6957562 -0.09627752 0.11311756 3023903
0.67985398 -0.074132368 0.10557181 3879469
0.69503599 -0.086827159 0.10916552 3154975
0.6580565 -0.039700199 0.10504533 6182998
0.66558224 -0.048868377 0.10546464 5261124
0.65475726 -0.015253944 0.10502765 3484966
0.65585041 0.014549525 0.10427742 3024412
0.66034782 0.022437384 0.11548693 2760726
0.65878755 0.032116283 0.1042405 2695447
0.66758567 0.047547922 0.10445622 3155484
0.68219525 0.069879062 0.10334859 2628883
0.69612235 0.082790159 0.10458549 3482904
0.71022522 0.094464086 0.10591233 3614234
0.72051811 0.1024506 0.099219263 4074018
0.67967021 -0.13273767 0.13550673 6577241
0.68345064 -0.11545409 0.13051255 3156260
0.70369482 -0.10092084 0.12924947 4472126
0.72071481 -0.095167354 0.13518026 10527141
0.683209 -0.069464251 0.13497506 6644849
0.69752836 -0.081409045 0.13466746 7763069
0.72648531 -0.089403175 0.14774133 13617356
0.65977442 -0.037723087 0.12436881 5788242
0.67015588 -0.046638466 0.13556097 6709346
0.65807694 -0.015978865 0.13098532 3221795
0.66267854 -0.018522363 0.13634421 3616553
0.65842456 0.011209523 0.12811784 2892825
0.66380787 0.016316358 0.13723764 2958617
0.67282909 0.044807918 0.13438012 2761241
0.68401718 0.065960512 0.13044517 2037007
0.70101535 0.078198627 0.13594332 3416342
0.72182274 0.091018736 0.1275104 3745561
0.67790353 -0.13804978 0.16036184 3813932
0.73573416 -0.091946222 0.15394321 10591650
0.68780017 -0.061709035 0.16415833 7566207
0.70301968 -0.075124025 0.1657123 9341331
0.72381949 -0.08564987 0.15369475 13025992
0.67800641 -0.045187417 0.16709025 5591123
0.69052249 -0.056256719 0.1785036 5064526
0.6694476 -0.015056403 0.16434008 3945518
0.67063689 0.013324434 0.16483763 3353121
0.68157935 0.043329611 0.16390544 3089692
0.69310713 0.057982847 0.16502988 2957336
0.70449805 0.069912292 0.16341677 3745307
0.7240063 0.083539538 0.15529028 3481360
0.69844878 -0.093632221 0.1968292 8026766
0.68986154 -0.075538166 0.19107051 2303023
0.70322871 -0.07657662 0.18896975 5130574
0.73738343 -0.071718365 0.19395001 6512483
0.75422287 -0.073668949 0.19633593 5722191
0.68188632 -0.041147362 0.18269303 4736065
0.70653659 -0.044105437 0.19263186 5525325
0.73329836 -0.047765099 0.20080905 6709603
0.7535885 -0.045942664 0.20659031 5523783
0.67813981 -0.014002857 0.18498696 3748652
0.70501721 -0.016126569 0.19801395 4275257
0.72596878 -0.017850371 0.20800427 5657690
0.67796296 0.013983564 0.18416046 3484964
0.70359564 0.0151471 0.19621319 3353635
0.73053855 0.01945271 0.20667267 2959135
0.75285131 0.023616657 0.20876108 4143668
0.683236 0.041912898 0.18254477 2564123
0.70489061 0.043962799 0.18928948 3418912
0.73586327 0.045675565 0.1990055 2827809
0.76166171 0.03499369 0.20527394 4340792
0.70724893 0.065922521 0.18422616 3615779
0.72967464 0.06685742 0.18978214 2957850
0.76655912 0.076899394 0.19530702 3945261
0.7858035 0.081566498 0.19773108 4867914
0.77842629 0.093994305 0.20362012 6379342
0.78339553 0.092230469 0.20302185 3286305
0.68847626 -0.091008529 0.22782032 5333115
0.69889134 -0.094877303 0.22797795 7371408
0.68863511 -0.08508946 0.22562318 2239291
0.6934666 -0.081088088 0.2255355 2103838
0.74981827 -0.070901081 0.21209873 10070975
0.75178576 -0.06353876 0.21319377 2829887
0.74543101 -0.057593346 0.21094069 2893354
0.73156202 -0.014136822 0.22097448 5394003
0.73295611 0.010894858 0.22344901 3352351
0.77347803 0.080842599 0.2303402 2960430
0.78254831 0.083667032 0.21661818 3223609
0.77615136 0.092528813 0.22527461 854026
0.78027993 0.094804212 0.21810287 2827808
0.70029068 -0.093152568 0.24269995 4285054
0.68981868 -0.081541888 0.2492606 3493999
0.69753206 -0.076918572 0.25585291 4939378
0.69679767 -0.057721082 0.26688409 2430480
0.73349839 -0.0077425032 0.24465701 4341311
0.73374856 0.0077347551 0.24456866 2826013
0.76553619 0.076317638 0.25526795 591625
0.77252579 0.091869913 0.24576411 590343
0.7056843 -0.069533356 0.27918902 6127251
0.70374328 -0.048260279 0.28654212 2302502
0.71241486 -0.016530914 0.29795307 3221023
0.72352171 0.0083676819 0.29784283 5721667
0.74346763 0.045156866 0.29415128 591367
0.75325823 0.057145394 0.27968132 787976
0.74971622 0.064293355 0.29259491 788238
0.7587648 0.070484109 0.27632838 657160
0.71315789 -0.037535217 0.30400935 1714228
0.72097158 -0.039914533 0.30747086 3097931
0.71348715 -0.015697895 0.30550364 722441
0.72933549 -0.010483974 0.31266204 1975598
0.73148739 0.015558321 0.30793574 722955
0.73986262 0.038810894 0.30362064 722954
