# .PCD v0.7 - Point Cloud Data file format
VERSION 0.7
FIELDS x y z rgb
SIZE 4 4 4 4
TYPE F F F U
COUNT 1 1 1 1
WIDTH 137
HEIGHT 1
VIEWPOINT 0 0 0 1 0 0 0
POINTS 137
DATA ascii
0.79175854 -0.1539562 0.015079325 13748709
0.78829771 -0.14697322 0.013930254 14339054
0.68562841 -0.099493444 0.023773616 9603229
0.69255149 -0.10345773 0.020097904 12433622
0.67128956 -0.07854116 0.0217182 6576486
0.6289354 -0.042357739 0.029864572 4470066
0.65156573 -0.041574016 0.020974969 3418154
0.66184855 -0.052905828 0.017782157 4470077
0.65325451 -0.018395009 0.020528456 2233876
0.66455781 -0.0166311 0.01429604 2364438
0.66717499 0.016736625 0.019318026 1839630
0.67999792 0.038994156 0.022565745 1576202
0.69722354 0.053781398 0.014007749 3482395
0.71264434 0.067511134 0.013290867 3811104
0.74313039 0.085179083 0.015411844 5192501
0.73910242 0.094864622 0.014063833 5916737
0.75690675 0.095332056 0.017063096 6047811
0.65154862 -0.096607 0.055631712 8155519
0.68159771 -0.097316585 0.035174385 8680830
0.69461524 -0.10946757 0.030692689 9470609
0.64104509 -0.074944027 0.049271729 7101020
0.66851807 -0.07643725 0.03149572 7167330
0.62790298 -0.043243583 0.047118604 6049351
0.63205278 -0.044669084 0.045765568 6245706
0.62831599 -0.015480424 0.051699758 5259577
0.63248163 -0.011239909 0.045015763 4732467
0.63842398 0.017147202 0.046405818 3548702
0.64919966 0.04035772 0.049506322 3285271
0.67521381 0.038496945 0.032496803 2430480
0.67022157 0.06475807 0.059042379 3614489
0.68126321 -0.12024731 0.085800096 11115686
0.75199795 -0.14027625 0.088333882 7560297
0.65278113 -0.097027004 0.075664744 8090243
0.66698754 -0.10947721 0.078753844 12367044
0.63969833 -0.074774653 0.076497398 6246483
0.62718862 -0.04427322 0.075604342 3812905
0.63131517 -0.045336343 0.075967774 4864051
0.62762344 -0.016195001 0.075083189 3548960
0.63085991 -0.010834762 0.072822526 4797485
0.62958503 0.0030719424 0.07473921 2891799
0.63719177 0.018506816 0.075772487 3811359
0.6518895 0.044370156 0.075070485 2759442
0.66267806 0.05722506 0.076382659 3285015
0.67204732 0.065596193 0.078250833 3876637
0.69351721 0.078911513 0.073353939 4795686
0.75761575 -0.15469797 0.10890437 9733776
0.68607646 -0.12104344 0.093785822 10655398
0.74733585 -0.1411359 0.097932108 6772571
0.75673634 -0.1404821 0.1087249 6048587
0.654513 -0.095294483 0.10090194 9671081
0.67014188 -0.10680063 0.10542935 12630221
0.64353901 -0.075006589 0.10646464 7365999
0.62860155 -0.042088885 0.10219261 3286818
0.63308299 -0.044052079 0.10811745 3943980
0.62916058 -0.018055942 0.10347249 2694420
0.63227808 -0.012528112 0.10604551 2957081
0.63952345 0.015342472 0.10694094 3154458
0.65285993 0.039482597 0.10689488 2430482
0.665057 0.052563224 0.10815653 2890261
0.67650175 0.065014914 0.10143867 3678228
0.69084257 0.071027085 0.10349004 4861736
0.76795107 -0.16450383 0.1369548 8813186
0.76943094 -0.13973075 0.13099255 4009257
0.657139 -0.094661579 0.12278476 13225700
0.672019 -0.09734723 0.1337516 14011872
0.70034468 -0.1115777 0.13901144 13154758
0.65115774 -0.07283476 0.13236684 7235187
0.66227096 -0.08475478 0.13681859 10065071
0.64167219 -0.046147861 0.13558403 4865595
0.6397801 -0.016022997 0.13435163 3680544
0.64830488 0.01388768 0.13435616 3286300
0.66156936 0.025957387 0.14624286 2824729
0.65621912 0.036698185 0.12754519 2168080
0.67337996 0.044812068 0.13858581 3218197
0.69230747 0.056053627 0.14546929 3480593
0.70453441 0.064950116 0.14167139 4005906
0.77562404 -0.18518007 0.16689402 9733513
0.78086585 -0.19548474 0.17589042 11509933
0.77290213 -0.16950165 0.16075057 5194307
0.68220806 -0.092766948 0.1682504 16050674
0.69099802 -0.094874829 0.17348206 4594227
0.74882257 -0.11616579 0.17796995 8355217
0.75618005 -0.11697453 0.17076324 9800855
0.65365738 -0.068619661 0.16031387 6510173
0.67273951 -0.076634049 0.1704042 7958399
0.70485049 -0.085380696 0.17902388 6839150
0.64877445 -0.044592418 0.16505472 4996671
0.66875058 -0.048156448 0.17739525 6049616
0.64888144 -0.01629536 0.16584639 4075565
0.66410106 -0.0157366 0.17704445 4141614
0.6528616 0.01220086 0.16228202 3680804
0.67166126 0.018840134 0.17277896 3615012
0.67972684 0.041969839 0.16597611 3285791
0.70070088 0.048063669 0.17229296 3614245
0.72551703 0.054874569 0.1752176 4403254
0.68313831 0.062251259 0.17489119 5126968
0.7765888 -0.18682964 0.18522507 3153959
0.78274488 -0.18813241 0.18336728 4535608
0.77760524 -0.17963299 0.18002331 3747619
0.74535221 -0.12324572 0.19975582 3881033
0.74574423 -0.11730838 0.19612314 2564127
0.75292945 -0.11393014 0.18969487 3681582
0.68335062 -0.065596648 0.1813574 6380135
0.70560497 -0.073105678 0.18577313 7826810
0.72798586 -0.067105547 0.18931749 8483447
0.76084024 -0.063833743 0.19918591 6314614
0.67549604 -0.043808006 0.18327354 5194824
0.70338434 -0.044960827 0.19450863 6642532
0.76031744 -0.056884516 0.19931133 4073523
0.68108451 -0.014805506 0.18624757 3812649
0.70616758 -0.013178023 0.19866982 2957598
0.68458289 0.0091243321 0.18292433 4272942
0.70710123 0.012769385 0.18982992 4601394
0.67971271 0.058024619 0.19461149 4800322
0.70373416 0.037934668 0.18136093 4733237
0.67920244 0.068171985 0.19615613 1575948
0.74058706 -0.12140998 0.22344305 3948371
0.73855639 -0.11126803 0.22297512 1313551
0.70260721 -0.036524635 0.21851587 5656407
0.7053808 -0.019072022 0.22262006 2957082
0.67361116 0.050775778 0.22630779 3090222
0.67366332 0.06338086 0.21691628 1116680
0.71990502 -0.093200445 0.26930624 329999
0.72833961 -0.10129213 0.25268471 919824
0.71677279 -0.080073938 0.26864535 786946
0.72335786 -0.087390363 0.26214021 984838
0.67572516 0.02367422 0.263042 3089699
0.67500383 0.045824885 0.2526955 1445136
0.68275124 0.060464013 0.24860054 3745571
0.72179866 -0.093677439 0.27459744 1712188
0.71166325 -0.072389863 0.28298816 788494
0.69884324 -0.045609843 0.29032785 1248011
0.68722683 -0.013412405 0.28927633 1050634
0.69163936 -0.023278607 0.29007149 1247242
0.68065578 0.012073878 0.28065398 1247758
0.69185984 0.016182365 0.28729391 2826786
0.68020457 0.03296607 0.27470192 2300187
