# .PCD v0.7 - Point Cloud Data file format
VERSION 0.7
FIELDS x y z rgb
SIZE 4 4 4 4
TYPE F F F U
COUNT 1 1 1 1
WIDTH 119
HEIGHT 1
VIEWPOINT 0 0 0 1 0 0 0
POINTS 119
DATA ascii
0.68082476 -0.14163925 0.028361829 11839938
0.65208429 -0.10591435 0.026781984 7167329
0.64217407 -0.073787101 0.025760252 5062463
0.64388126 -0.046051968 0.024397068 4075307
0.64927775 -0.016421197 0.026268193 3417115
0.65827024 0.003596558 0.029823411 3614752
0.69720435 0.02413097 0.024569301 3417117
0.71356392 0.036547787 0.022278555 4007454
0.65789533 -0.12070021 0.049481113 7102312
0.67234147 -0.1366252 0.04576429 10589602
0.65018189 -0.10514662 0.045143012 6838361
0.64022583 -0.074891202 0.045798246 5390908
0.63944083 -0.044134073 0.043539606 4930099
0.64749295 -0.01303244 0.044685468 3680286
0.65699279 0.0064984262 0.046382893 3483163
0.66843927 0.019484892 0.042595718 3745823
0.68176579 0.034298148 0.048028152 4073759
0.69931734 0.043913022 0.050694831 4928039
0.72392011 0.062973805 0.059320495 5781800
0.65860707 -0.12152456 0.085267305 7431271
0.6723544 -0.13626774 0.073646411 11249076
0.65068632 -0.10601521 0.074527867 6838876
0.64035136 -0.074304529 0.074716553 4733236
0.63968599 -0.043427557 0.075454392 3943975
0.64706874 -0.014094922 0.073561601 3351836
0.6568051 0.005168152 0.071153238 3022101
0.66875201 0.018123489 0.076662742 3021843
0.68281972 0.0327635 0.071625382 3678487
0.70458281 0.04549 0.075970359 3481623
0.72135061 0.056338977 0.076738685 2824978
0.7187196 0.064766861 0.07538484 3087377
0.72376937 0.071870513 0.078184307 4139808
0.67124939 -0.12874877 0.1053215 8684185
0.65291607 -0.1021092 0.10196564 7563633
0.66244853 -0.11522029 0.107131 7696517
0.64577729 -0.075444721 0.10623638 4404788
0.64409214 -0.045699585 0.10287642 3286303
0.65122461 -0.0160766 0.10352458 3155228
0.66239893 -0.0028437246 0.11361596 2694166
0.65890312 0.0018299107 0.097545609 2628631
0.67393142 0.015218244 0.10577203 3022102
0.69618183 0.028569154 0.1163145 3809559
0.6883114 0.032883931 0.094256006 4270366
0.70507407 0.038893051 0.10391402 2561808
0.73132056 0.050952826 0.10348813 2036493
0.72844505 0.075344227 0.10768379 3285787
0.72931808 0.091664031 0.10818444 5389106
0.67243457 -0.12264445 0.12345365 8158103
0.6577248 -0.091834366 0.1352247 6181714
0.66809273 -0.10756099 0.13515209 8156548
0.65386671 -0.074022062 0.13401729 4602422
0.65337563 -0.045280736 0.13142607 3418144
0.65757811 -0.023614489 0.12999935 3549214
0.66735744 -0.011672646 0.13495876 3220509
0.68058693 0.0067605525 0.13460447 3088409
0.70026278 0.021438511 0.13432203 3350551
0.71214283 0.032575361 0.12588656 2757905
0.72469938 0.032528412 0.13012367 3086610
0.73271519 0.080489367 0.13062119 3746347
0.73112506 0.098998584 0.13633581 4337708
0.6822859 -0.1263051 0.15299027 11049389
0.70546484 -0.12819938 0.16126373 9274255
0.73298854 -0.13364211 0.165214 5589323
0.75219142 -0.13664728 0.16592288 6511965
0.6589148 -0.093239225 0.15399754 4667711
0.67518747 -0.10478343 0.15825453 6972015
0.70376104 -0.10541665 0.16994931 8024961
0.73526442 -0.10667644 0.17566702 6971489
0.65563214 -0.07489799 0.15477788 3944494
0.67401701 -0.075260386 0.16470025 5195333
0.69797242 -0.078474119 0.17555693 5458768
0.6545307 -0.045070175 0.15320241 3615269
0.67439902 -0.0446207 0.16527326 4142126
0.69898868 -0.043604378 0.17702809 3221024
0.65789652 -0.027832104 0.15399309 3943463
0.67502367 -0.014975732 0.16019426 3549732
0.69995815 -0.018141611 0.17419645 3418407
0.73653412 -0.016152764 0.17855687 4274229
0.68435752 0.0057879738 0.15685228 3153946
0.70312881 0.011248163 0.16401803 3812135
0.73565722 0.016152235 0.16695125 4273971
0.75062567 0.018040298 0.16652983 4273198
0.72976732 0.038109392 0.17367405 6639446
0.73272115 0.10745846 0.16087784 4602173
0.73274666 0.12583815 0.16798642 4600090
0.72930914 -0.14713255 0.20236388 1312519
0.71938461 -0.090058975 0.18281505 5259842
0.73580736 -0.095615484 0.18295829 7300198
0.71181208 -0.071690276 0.19274911 5524046
0.72284478 -0.072845392 0.18797977 6841199
0.71159911 -0.049408607 0.19229881 2628890
0.72601652 -0.041388236 0.18868196 2760733
0.69876987 -0.011890472 0.18277535 3812916
0.73729682 -0.020809416 0.1827684 4931132
0.72606325 0.024116665 0.20291977 7893110
0.72704548 0.038525302 0.19271705 2497313
0.72505647 -0.14043418 0.22740404 1182223
0.71396667 -0.069597453 0.21425313 4603713
0.72294474 -0.073351391 0.21664689 4602691
0.71503544 -0.047598761 0.21669765 3153694
0.72603822 -0.042564459 0.21746679 3021336
0.7193808 0.019133257 0.23426642 919565
0.72246575 0.022818645 0.22663581 1445396
0.72306561 0.033765662 0.22480476 1247501
0.72268355 -0.13131897 0.25144961 723224
0.71944118 -0.10542119 0.26600459 1509898
0.72071731 -0.10857477 0.26420978 1707015
0.7179302 -0.013076883 0.26295057 5391428
0.71872807 0.011236659 0.25205043 1247758
0.72141433 0.012542365 0.24909711 1050636
0.71776575 -0.10089958 0.27592254 723220
0.72048509 -0.10051753 0.27700016 1116689
0.71739227 -0.073681928 0.27853554 2365463
0.72516537 -0.074884653 0.28585291 2105640
0.71705979 -0.044900242 0.27810273 3286306
0.72608614 -0.045717575 0.28728473 1381406
0.71702772 -0.019942768 0.27599594 1182221
0.72461504 -0.014565751 0.27811056 985359
0.71641803 1.1761673e-05 0.27111608 854031
