# .PCD v0.7 - Point Cloud Data file format
VERSION 0.7
FIELDS x y z rgb
SIZE 4 4 4 4
TYPE F F F U
COUNT 1 1 1 1
WIDTH 130
HEIGHT 1
VIEWPOINT 0 0 0 1 0 0 0
POINTS 130
DATA ascii
0.68539691 -0.06664259 0.059755962 8418181
0.70682448 -0.068184525 0.045664478 11379379
0.73029113 -0.074232876 0.033626288 10392239
0.67474014 -0.040147319 0.052547272 7364968
0.70691586 -0.046895634 0.035646524 8352132
0.67085975 -0.015057322 0.051383607 7035231
0.7019065 -0.021038929 0.03503136 7101546
0.66936034 0.017232051 0.048094951 5128258
0.69372159 0.016189435 0.033000808 4996161
0.67144287 0.041407656 0.050359227 4206891
0.69696641 0.045449954 0.033620965 2956572
0.68450034 0.071915068 0.052257247 3746080
0.70713693 0.078534894 0.041003402 2890773
0.72178239 0.085736938 0.041148849 3219480
0.7000398 0.092886984 0.051525541 3811100
0.72438669 0.091878697 0.038099352 3153174
0.67415863 -0.093808889 0.082168765 11246759
0.6737631 -0.075960241 0.077870578 8285300
0.67705423 -0.043965988 0.076717943 7495265
0.66965377 -0.014537456 0.075589813 6310988
0.65936792 0.0084254127 0.062272064 6049094
0.66721797 0.017047303 0.075711489 5324605
0.67096061 0.042539597 0.075108856 4535086
0.68201274 0.068634778 0.075331777 3745570
0.6928854 0.082200579 0.07544253 3876636
0.7057721 0.098119549 0.076215014 4468005
0.72562045 0.11195394 0.08292646 4993834
0.73238665 0.1212241 0.07995528 7955804
0.65880054 -0.093277015 0.11670623 7167327
0.66566122 -0.0956745 0.10239176 9535626
0.65973359 -0.082252607 0.1122849 5917256
0.67179847 -0.072187036 0.10529766 5061948
0.70331454 -0.069813266 0.1164287 3943477
0.68027723 -0.044939943 0.10454714 5850695
0.69205582 -0.05224321 0.11552279 4074284
0.67048365 -0.015507793 0.10569364 4864570
0.66857326 0.016394101 0.10527236 3614756
0.67392915 0.044091646 0.10467464 3943461
0.68308711 0.06692639 0.10502101 3022363
0.69541746 0.080414899 0.10775636 3482139
0.7119537 0.098016664 0.10555871 4401441
0.72644144 0.10645955 0.10731636 5124651
0.65349269 -0.10189375 0.13913386 8285553
0.66141415 -0.09322609 0.13210261 6772053
0.65653139 -0.08585123 0.13386141 4272177
0.6660108 -0.083852425 0.1332574 4337457
0.70681685 -0.068013377 0.1282431 11050422
0.72790259 -0.081817061 0.12817888 11575464
0.68465352 -0.040786609 0.13192065 8023674
0.69802183 -0.04921345 0.13792299 9011088
0.67800474 -0.014847273 0.13473564 5127998
0.69098192 -0.024762668 0.14667627 6114897
0.67647469 0.015200168 0.13565899 3943718
0.68084335 0.044025883 0.13331884 3943718
0.69257122 0.054211963 0.14219575 3811618
0.68802679 0.064164639 0.12805399 2956570
0.70256799 0.076936752 0.13551733 3612957
0.72252756 0.087966792 0.14261135 4926245
0.71643597 0.093779318 0.13293235 4532255
0.73137313 0.10012972 0.13620812 4729894
0.62821138 -0.12882516 0.1691058 4337730
0.6422953 -0.12379254 0.17303663 8022126
0.64661282 -0.1090593 0.16448221 5982794
0.66111398 -0.094121106 0.15128496 4731955
0.69892192 -0.062604055 0.17601226 13286341
0.68724656 -0.033930112 0.17132981 4403508
0.70075184 -0.04641844 0.16514315 6838889
0.68322849 -0.012486289 0.16617277 4733241
0.69256234 -0.02010286 0.16948786 5917000
0.68150496 0.014579169 0.16637206 4140844
0.69288272 0.014834625 0.17768784 4799030
0.68722552 0.04058186 0.16328658 3812134
0.69759768 0.049074378 0.17021953 4206636
0.70715028 0.069828197 0.16481221 4074021
0.727835 0.084195025 0.16924453 4796460
0.73597687 0.093959413 0.16031933 4729641
0.75289446 0.094352782 0.17957124 4136212
0.65068477 -0.11262408 0.18189937 6706014
0.68566203 -0.066059709 0.19653386 6511216
0.69280165 -0.069562502 0.19525881 9142159
0.68330365 -0.057789605 0.19657485 1445401
0.70853841 -0.043707017 0.18222138 7431533
0.73340684 -0.042411771 0.18999714 7561833
0.7647357 -0.034908224 0.19903986 6640469
0.70835203 -0.014829902 0.18660031 5984080
0.73651809 -0.014870245 0.19845004 7102311
0.76126599 -0.020442851 0.202953 8943999
0.70788181 0.014573877 0.18771933 4864821
0.73313105 0.012605964 0.20045587 3944241
0.75870621 0.026081398 0.20739499 4206383
0.70898372 0.041953079 0.18563876 4864820
0.734433 0.045339987 0.19438283 4337964
0.75916511 0.042841684 0.2014765 3614759
0.78978682 0.048148498 0.19746943 4075828
0.71615076 0.064518742 0.18129697 4535345
0.73718327 0.070797436 0.18570383 4798257
0.76367855 0.075820632 0.18919675 4403244
0.78366846 0.084908098 0.18676707 5060922
0.73660809 0.091878228 0.1801866 5454138
0.76008993 0.091798417 0.18327242 5190189
0.68399054 -0.064388104 0.21911766 7568033
0.69289315 -0.069169447 0.22331302 7039874
0.68369251 -0.052788194 0.22328985 2170156
0.69058603 -0.050963629 0.23381619 3223874
0.74150354 -0.0064040837 0.22613443 7826301
0.77231157 -0.0097737135 0.21022224 9534333
0.74164313 0.012570681 0.22550219 3416868
0.75277048 0.023654161 0.22294682 4797741
0.75724584 0.03187082 0.23189145 7426378
0.68997657 -0.060943957 0.24309267 13498614
0.69890743 -0.063219368 0.25142568 10000299
0.68689847 -0.047169216 0.24974632 4475740
0.69688219 -0.047168747 0.25969836 5990781
0.74982774 -0.0012059083 0.24130437 6313823
0.74698257 0.011589942 0.24070717 4734010
0.75210935 0.014397605 0.24192268 3549230
0.79351676 0.070915885 0.25958294 985102
0.7082274 -0.040752333 0.27935359 6322057
0.71028358 -0.018672846 0.28688076 2102808
0.72580153 -0.014573917 0.2966902 3093824
0.73405468 0.011705974 0.29739073 2956313
0.76587123 0.047287717 0.29175454 1051150
0.78000617 0.058707952 0.27712801 984842
0.775985 0.061980568 0.28482297 919564
0.78415334 0.064901255 0.27399072 787977
0.71503484 -0.009675107 0.30099523 591889
0.73469764 -0.010487013 0.30357242 3821401
0.73871136 0.011834709 0.30447364 1380117
0.75782794 0.020253114 0.30957809 2236715
0.76493984 0.03443253 0.30468768 1511187
